# .PCD v0.7 - Point Cloud Data file format
VERSION 0.7
FIELDS x y z
SIZE 4 4 4
TYPE F F F
COUNT 1 1 1
WIDTH 1875
HEIGHT 1
VIEWPOINT 0 0 0 2.98023e-07 1 0 -0
POINTS 1875
DATA ascii
-7.55719 19.6173 -3.7829
-7.87537 19.6332 -3.79091
-6.80888 19.6149 -3.77083
-7.14945 19.6395 -3.77801
-6.47381 19.6414 -3.76962
-6.80024 19.645 -3.77347
-5.76777 19.6542 -3.76602
-6.08346 19.6706 -3.7691
-5.02063 19.6363 -3.76392
-5.34507 19.6551 -3.76532
-4.31079 19.6185 -3.76616
-4.65616 19.6472 -3.76645
-3.94199 19.6519 -3.77282
-4.25934 19.6749 -3.77164
-3.26214 19.6346 -3.78073
-3.58598 19.6665 -3.77856
-2.56142 19.6272 -3.79353
-2.84592 19.652 -3.78981
-1.81067 19.6168 -3.811
-2.1485 19.6492 -3.80506
-1.4436 19.6441 -3.82378
-1.80742 19.6561 -3.81438
-0.785357 19.6539 -3.84547
-1.03991 19.6949 -3.84039
-0.0208419 19.6304 -3.87139
-0.359288 19.7028 -3.86443
0.291924 19.6772 -3.88747
0.0377981 19.7808 -3.88542
-17.4763 19.6526 -4.35442
-17.5527 19.7196 -4.36585
-16.8025 19.5982 -4.29193
-17.1137 19.6212 -4.32047
-17.5017 19.7549 -4.36378
-16.4494 19.6102 -4.26302
-16.7956 19.6295 -4.29358
-15.7581 19.6097 -4.20639
-16.0485 19.6242 -4.23088
-15.4481 19.6246 -4.18296
-14.3414 19.5711 -4.6557
-14.3796 19.5778 -4.6598
-13.9425 19.584 -4.62303
-13.2658 19.583 -4.56793
-13.547 19.5964 -4.59172
-12.5161 19.5824 -4.51158
-12.8658 19.5813 -4.53703
-11.8416 19.5763 -4.46471
-12.1102 19.5873 -4.48399
-11.4453 19.5845 -4.44079
-10.7505 19.5834 -4.40052
-11.0481 19.5907 -4.41788
-10.0183 19.5885 -4.36418
-10.374 19.5973 -4.38251
-9.30794 19.6006 -4.3353
-9.61227 19.5955 -4.34712
-8.97068 19.6006 -4.32297
-8.28117 19.5881 -4.29968
-8.54956 19.5987 -4.30871
-7.51933 19.587 -4.28164
-7.87672 19.588 -4.28931
-6.81049 19.5969 -4.27205
-7.11392 19.5974 -4.2762
-6.44686 19.596 -4.26876
-5.75575 19.6047 -4.26747
-6.08621 19.6143 -4.26904
-5.01907 19.5974 -4.26967
-5.37416 19.6096 -4.26894
-4.30902 19.6066 -4.27936
-4.61282 19.6009 -4.27446
-3.99317 19.6007 -4.2843
-3.2685 19.6001 -4.30068
-3.54842 19.6115 -4.29495
-2.5178 19.5983 -4.3229
-2.87451 19.6055 -4.31237
-1.86161 19.581 -4.34489
-2.09127 19.6041 -4.33882
-1.43963 19.5976 -4.36448
-0.77921 19.6026 -4.39554
-1.0478 19.6149 -4.38398
-0.425312 19.599 -4.41291
0.533156 19.7261 -3.9011
1.01347 19.667 -3.91741
0.778936 19.7166 -3.9108
1.32408 19.7396 -3.93683
-26.8403 19.555 -5.33297
-27.0598 19.5867 -5.36002
-26.6488 19.5802 -5.31163
-18.814 19.581 -5.11906
-18.2448 19.5645 -5.05174
-18.5774 19.5699 -5.09041
-17.5483 19.5622 -4.97339
-17.8372 19.5685 -5.00603
-16.8005 19.5611 -4.89264
-17.0952 19.5703 -4.92498
-16.4336 19.5746 -4.85588
-15.7669 19.5763 -4.78892
-16.079 19.5767 -4.81992
-15.0134 19.581 -4.71738
-15.342 19.5787 -4.74801
-14.6108 19.5836 -4.68104
-13.6101 19.5599 -5.14636
-13.2676 19.5964 -5.11963
-13.5155 19.6076 -5.14434
-12.5067 19.5997 -5.05305
-12.8312 19.6079 -5.0821
-11.803 19.575 -4.99314
-12.1162 19.5926 -5.02021
-11.4203 19.5887 -4.96738
-10.7585 19.6019 -4.92518
-11.0356 19.6029 -4.94306
-10.0377 19.6116 -4.88472
-10.3263 19.6228 -4.90251
-9.3364 19.599 -4.8484
-9.65899 19.6367 -4.86955
-8.93973 19.6242 -4.83615
-9.28637 19.6616 -4.85629
-8.2621 19.6143 -4.81123
-8.57545 19.6314 -4.82387
-7.5107 19.6069 -4.79141
-7.83528 19.6143 -4.79971
-6.83441 19.6018 -4.78046
-7.12274 19.6271 -4.78826
-6.44081 19.6295 -4.78214
-6.78283 19.666 -4.79038
-5.75457 19.6351 -4.78276
-6.0361 19.6751 -4.78848
-5.02263 19.6465 -4.79118
-5.29911 19.6772 -4.79289
-4.33404 19.6124 -4.79842
-4.68037 19.6432 -4.79632
-3.92632 19.6225 -4.8106
-4.2891 19.6704 -4.80865
-3.26044 19.6292 -4.83298
-3.5739 19.6426 -4.82423
-2.53809 19.6136 -4.85979
-2.82189 19.6513 -4.85333
-1.80072 19.594 -4.89296
-2.10045 19.6546 -4.88675
-1.44309 19.6164 -4.91614
-0.016139 19.5982 -4.43476
-0.334241 19.6063 -4.41849
0.659757 19.5998 -4.47392
0.390181 19.6086 -4.45898
1.05391 19.6034 -4.49869
1.35731 19.6489 -4.52278
-31.0763 19.526 -5.84171
-31.3798 19.5648 -5.88041
-30.7393 19.5528 -5.80112
-31.071 19.5578 -5.84207
-30.047 19.5429 -5.71609
-30.3121 19.5575 -5.74895
-29.3229 19.5627 -5.62884
-29.6004 19.5749 -5.66289
-28.9646 19.5714 -5.58594
-28.2556 19.5806 -5.50129
-28.5393 19.6082 -5.53623
-27.5014 19.5727 -5.41143
-27.8552 19.5965 -5.45427
-27.3234 19.5967 -5.39141
-24.2838 19.5503 -5.82373
-23.5682 19.5309 -5.7234
-23.9445 19.5515 -5.77677
-23.2632 19.5489 -5.68311
-23.5723 19.5518 -5.72549
-22.5812 19.5543 -5.59146
-22.8207 19.5571 -5.62378
-21.8372 19.5681 -5.49405
-22.0916 19.5628 -5.5271
-18.5785 19.5454 -5.73533
-18.2409 19.5756 -5.69273
-18.5099 19.6042 -5.73301
-17.5796 19.5697 -5.6035
-17.8253 19.5863 -5.63805
-16.7992 19.5725 -5.50354
-17.1038 19.5869 -5.54405
-16.4377 19.5955 -5.46189
-15.7588 19.5971 -5.38089
-16.0721 19.6221 -5.42116
-15.0366 19.5934 -5.29846
-15.3275 19.6073 -5.3328
-14.3324 19.5831 -5.22177
-14.6328 19.6036 -5.25626
-13.9353 19.6221 -5.18731
-13.123 19.5746 -5.47031
-13.5706 19.634 -5.15349
-12.5363 19.5924 -5.60119
-12.8166 19.5898 -5.62833
-11.7903 19.5752 -5.52953
-12.1189 19.5751 -5.55875
-11.0817 19.5559 -5.46811
-11.4489 19.5812 -5.50214
-10.7443 19.5877 -5.44952
-11.0717 19.5837 -5.47267
-10.0332 19.5978 -5.40465
-10.3571 19.6052 -5.42637
-9.29268 19.6045 -5.36549
-9.57205 19.6128 -5.3815
-8.96106 19.6283 -5.35514
-8.24865 19.6109 -5.32475
-8.56553 19.6347 -5.34026
-7.5408 19.5962 -5.30317
-7.85953 19.6101 -5.31327
-6.79108 19.5993 -5.29288
-7.11012 19.6277 -5.30216
-6.40828 19.6426 -5.29964
-6.77441 19.6809 -5.30892
-5.73881 19.6529 -5.30368
-6.03366 19.6974 -5.31059
-5.00038 19.6302 -5.30971
-5.37453 19.6427 -5.30572
-4.33146 19.5844 -5.31767
-4.64134 19.6243 -5.31689
-3.58702 19.5625 -5.3403
-3.92612 19.6147 -5.33726
-3.25229 19.6237 -5.36681
-3.54071 19.6652 -5.36188
-2.53234 19.6234 -5.40371
-2.82619 19.6616 -5.3949
-1.80942 19.5786 -5.43973
-2.18256 19.654 -5.42997
-1.24021 19.6647 -4.93488
-0.77437 19.6423 -4.96033
-1.03012 19.6947 -4.9519
-0.0378629 19.6338 -5.00876
-0.335584 19.6777 -4.99435
0.736399 19.6003 -5.06208
0.382038 19.6643 -5.04383
1.02697 19.6673 -5.09444
0.733551 19.7065 -5.07642
1.32558 19.7118 -5.1248
-28.1532 19.5215 -6.38072
-27.5542 19.5258 -6.29215
-27.8518 19.5316 -6.33651
-26.8116 19.5296 -6.18332
-27.1058 19.5315 -6.2265
-26.0754 19.5351 -6.07682
-26.3948 19.5317 -6.12283
-25.7727 19.5412 -6.03372
-26.0689 19.5504 -6.07689
-25.0765 19.5471 -5.93487
-25.3568 19.5453 -5.97453
-24.3947 19.5471 -5.83897
-24.6156 19.5521 -5.87026
-22.3341 19.5626 -6.29885
-21.7906 19.5522 -6.21194
-22.0777 19.5751 -6.25953
-21.0716 19.5503 -6.10033
-21.4269 19.5777 -6.15807
-20.7563 19.58 -6.05561
-21.0586 19.5806 -6.10164
-20.0556 19.5539 -5.94792
-20.3155 19.5699 -5.98826
-19.3109 19.5758 -5.84214
-19.5736 19.589 -5.88153
-18.5959 19.5384 -5.7369
-18.9213 19.5873 -5.78833
-18.5658 19.5836 -5.73823
-17.4116 19.5605 -6.21023
-16.7623 19.5539 -6.1127
-17.1089 19.5955 -6.17043
-16.0667 19.552 -6.01342
-16.4333 19.5943 -6.07203
-15.7473 19.5948 -5.97685
-16.058 19.6429 -6.02727
-15.0082 19.5865 -5.87834
-15.3216 19.6068 -5.9222
-14.3257 19.5694 -5.79106
-14.6234 19.6044 -5.83336
-13.943 19.5999 -5.75167
-13.2281 19.5959 -5.67204
-13.564 19.6533 -5.71851
-12.3502 19.5283 -6.12154
-12.8922 19.6149 -5.64056
-11.789 19.5288 -6.06414
-12.1458 19.528 -6.09996
-11.1165 19.5218 -6.00041
-11.3453 19.5244 -6.02149
-10.7191 19.5309 -5.96964
-10.0272 19.5443 -5.92176
-10.3185 19.545 -5.9421
-9.30342 19.5394 -5.87637
-9.64707 19.5385 -5.89594
-8.57969 19.5487 -5.8441
-8.93353 19.5563 -5.86171
-8.2373 19.5439 -5.83041
-7.54229 19.5378 -5.80959
-7.8221 19.546 -5.81799
-6.79399 19.5414 -5.79969
-7.11682 19.5473 -5.8044
-6.11685 19.5384 -5.79846
-6.38958 19.5554 -5.80181
-5.70123 19.5572 -5.80705
-6.05949 19.5962 -5.81233
-5.08197 19.5407 -5.81501
-5.36331 19.5528 -5.81135
-4.29167 19.5413 -5.84013
-4.61752 19.5519 -5.83089
-3.60588 19.5433 -5.87131
-3.86432 19.5517 -5.86087
-3.2619 19.5442 -5.89027
-2.5543 19.5445 -5.9344
-2.82085 19.5579 -5.91961
-1.78575 19.5978 -5.44481
-1.99703 19.6102 -5.57081
-1.41426 19.6325 -5.47685
-0.764591 19.636 -5.52624
-1.04053 19.6919 -5.51481
-0.00356622 19.6286 -5.5886
-0.32124 19.6498 -5.56484
0.754472 19.6213 -5.65726
0.374582 19.6696 -5.62979
0.987341 19.6576 -5.68614
-31.7782 19.5079 -6.93156
-32.0084 19.5095 -6.96737
-31.1064 19.5022 -6.82742
-31.3776 19.5109 -6.86972
-30.6968 19.509 -6.76481
-30.0107 19.5075 -6.65982
-30.311 19.5157 -6.70605
-29.3127 19.5149 -6.55428
-29.6373 19.5154 -6.60347
-28.5704 19.5165 -6.44269
-28.9009 19.5205 -6.49254
-28.431 19.5214 -6.42214
-25.552 19.5578 -6.83136
-25.0263 19.5526 -6.74126
-25.2994 19.5885 -6.79093
-24.3034 19.5491 -6.61913
-24.5734 19.5804 -6.66732
-23.5616 19.5475 -6.49597
-23.8986 19.5726 -6.55403
-23.1955 19.5572 -6.43708
-23.5922 19.6274 -6.50875
-22.5358 19.5701 -6.33182
-22.8141 19.5705 -6.37656
-22.3346 19.6042 -6.3032
-20.6258 19.5715 -6.74023
-20.0821 19.5469 -6.64215
-20.348 19.5576 -6.68965
-19.2951 19.5568 -6.50999
-19.5556 19.5952 -6.55926
-18.5652 19.5572 -6.39025
-18.9014 19.5964 -6.4508
-18.2091 19.57 -6.33539
-18.5603 19.6017 -6.39613
-17.6 19.5697 -6.24047
-17.8489 19.584 -6.28096
-16.6192 19.4927 -6.70275
-16.0687 19.5097 -6.61686
-16.3693 19.5169 -6.66662
-15.7162 19.5214 -6.56412
-15.0569 19.5217 -6.46495
-15.3138 19.5353 -6.50555
-14.3141 19.5264 -6.36089
-14.6402 19.5287 -6.40652
-13.614 19.5198 -6.26743
-13.8917 19.5291 -6.30523
-13.2572 19.5357 -6.22689
-12.5884 19.5309 -6.14819
-12.852 19.5519 -6.18242
-2.3055 19.5525 -5.95342
-1.81958 19.5391 -5.98749
-2.14692 19.5464 -5.96379
-1.07937 19.5346 -6.04954
-1.37099 19.547 -6.0265
-0.660336 19.5542 -6.09312
-0.0717089 19.543 -6.14992
-0.336984 19.558 -6.12558
0.683168 19.5518 -6.2342
0.367768 19.5592 -6.20029
1.10928 19.5696 -6.28749
-32.1171 19.5088 -6.98423
-28.6038 19.5161 -7.36483
-28.7605 19.5366 -7.39463
-28.2121 19.5498 -7.29716
-27.5326 19.548 -7.176
-27.83 19.5578 -7.22958
-26.8349 19.527 -7.05127
-27.074 19.5593 -7.09594
-26.0677 19.5411 -6.91875
-26.3602 19.55 -6.9703
-25.8257 19.5641 -6.87896
-26.0502 19.5845 -6.91945
-23.2123 19.5575 -7.2129
-22.5374 19.5435 -7.08379
-22.8245 19.6022 -7.14496
-21.7665 19.5419 -6.94093
-22.1023 19.5696 -7.00623
-21.0435 19.5292 -6.80845
-21.3753 19.5738 -6.87411
-20.907 19.5807 -6.79114
-21.0618 19.6134 -6.82307
-19.7054 19.4725 -7.25738
-19.2934 19.4992 -7.18241
-19.5907 19.5044 -7.24053
-18.5552 19.4995 -7.0435
-18.9157 19.5048 -7.11171
-17.8581 19.4836 -6.91402
-18.1476 19.5038 -6.96986
-17.4891 19.5047 -6.85297
-17.8522 19.5045 -6.91681
-16.8238 19.5063 -6.73946
-17.1295 19.5137 -6.79251
-16.6225 19.5285 -6.71017
-30.3426 19.4788 -7.67852
-30.599 19.4942 -7.72681
-30.0358 19.5132 -7.62469
-30.2885 19.536 -7.67262
-29.2727 19.5338 -7.48703
-29.5811 19.5462 -7.54401
-29.0328 19.5538 -7.44508
-22.2952 19.482 -7.78883
-21.8306 19.4857 -7.69098
-22.1276 19.4893 -7.75427
-21.0966 19.4863 -7.5384
-21.3632 19.4926 -7.59443
-20.3491 19.4831 -7.38628
-20.7087 19.4885 -7.45965
-20.0195 19.4894 -7.322
-20.3451 19.5061 -7.38929
-19.7055 19.4997 -7.262
-23.4857 19.4515 -8.04266
-22.8725 19.4716 -7.91145
-23.1665 19.4756 -7.97618
-22.5773 19.4777 -7.84864
8.29544 -1.72258 -2.10949
8.28417 -1.44802 -2.10346
8.30709 -1.14126 -2.09543
8.31722 -0.739414 -2.08548
8.32612 -0.452225 -2.07821
8.32372 -0.0208183 -2.06768
8.32269 0.292505 -2.05992
8.32653 0.624997 -2.05138
8.31691 1.00759 -2.04193
8.3292 1.33886 -2.03291
8.30283 1.72969 -2.02354
8.33662 2.10892 -2.01225
8.3299 2.4776 -2.00248
8.34927 2.74947 -1.99436
8.33465 3.12741 -1.98436
8.33 3.54396 -1.97278
8.33556 3.79515 -1.9654
8.32874 4.28527 -1.95144
8.33395 4.57412 -1.94277
8.32517 4.97653 -1.93108
8.35519 5.28108 -1.92085
8.33534 5.64584 -1.91038
8.31786 6.00766 -1.89981
8.34796 6.31335 -1.88917
8.34972 6.71376 -1.87642
8.40386 7.06282 -1.86331
8.41136 7.4531 -1.85036
8.43228 7.77193 -1.83914
8.38652 8.17374 -1.82735
8.3062 8.48031 -1.81983
8.2736 8.64024 -1.81553
8.34891 -1.44414 -2.70085
8.34321 -1.14181 -2.68961
8.34393 -0.724284 -2.67418
8.34465 -0.43451 -2.66356
8.3434 -0.00407011 -2.64795
8.3452 0.306615 -2.63677
8.34757 0.659162 -2.62423
8.34263 1.06216 -2.61001
8.35463 1.33021 -2.60066
8.32546 1.74761 -2.58623
8.35462 2.09225 -2.57444
8.35078 2.49717 -2.56076
8.35966 2.76478 -2.5518
8.35271 3.16364 -2.53862
8.36024 3.52479 -2.52681
8.35681 3.7907 -2.51822
8.34857 4.27555 -2.50274
8.33961 4.59513 -2.49268
8.35222 4.98422 -2.4806
8.34649 5.26315 -2.47201
8.30309 5.63204 -2.46083
8.27935 6.06664 -2.44782
8.27234 6.34882 -2.4395
8.2607 6.76892 -2.42727
8.25992 7.06192 -2.41884
8.26093 7.48371 -2.40691
8.26623 7.81809 -2.39755
8.2668 8.12774 -2.38902
8.25985 8.55989 -2.37727
8.2926 8.85355 -2.36939
8.29456 9.27932 -2.35813
8.31293 9.5616 -2.35075
8.30188 9.96541 -2.34038
8.28361 10.3078 -2.3317
8.3157 10.3019 -2.33182
8.308 10.6516 -2.32308
8.30337 11.0201 -2.31397
8.31817 11.3375 -2.30622
8.30422 11.7763 -2.29569
8.31823 12.0597 -2.28894
8.31101 12.4527 -2.27975
8.33384 12.7621 -2.27255
8.31585 13.1355 -2.26406
8.30618 13.5206 -2.25538
8.34101 13.8422 -2.24815
8.30322 14.2603 -2.23903
8.39761 14.3943 -2.23589
8.42142 -2.10458 -3.3377
8.3197 -1.83282 -3.32038
8.31008 -1.43694 -3.29953
8.3136 -1.13584 -3.2843
8.30963 -0.709242 -3.26284
8.30972 -0.378835 -3.24664
8.30938 -0.016606 -3.22927
8.30648 0.334852 -3.2126
8.32223 0.331701 -3.21325
8.31354 0.674622 -3.19722
8.31795 1.04652 -3.18061
8.32407 1.37449 -3.16642
8.26169 1.77168 -3.14732
8.30566 2.12439 -3.13407
8.27513 2.47333 -3.11892
8.20874 2.85281 -3.10164
8.32621 2.83226 -3.10645
8.32411 3.17403 -3.09333
8.25586 3.55745 -3.0767
8.2712 3.84103 -3.067
8.29024 4.24902 -3.05342
8.32936 4.57152 -3.04389
8.31849 4.98229 -3.0302
8.33169 5.32177 -3.02001
8.3292 5.6612 -3.00976
8.32442 6.03954 -2.99861
8.33011 6.4044 -2.98873
8.32703 6.78939 -2.97845
8.33588 7.07907 -2.9714
8.33222 7.50945 -2.96091
8.33413 7.8181 -2.95386
8.334 8.15445 -2.94654
8.32928 8.53969 -2.93834
8.34029 8.85716 -2.9325
8.34462 9.2488 -2.92535
8.34711 9.6058 -2.91921
8.34415 10.0119 -2.91253
8.35505 10.2783 -2.90878
8.34843 10.6765 -2.9029
8.338 11.0751 -2.89727
8.35062 11.343 -2.89441
8.34748 11.7486 -2.88968
8.35849 12.111 -2.88628
8.35234 12.4641 -2.88278
8.36369 12.8167 -2.88008
8.35519 13.2006 -2.87693
8.33825 13.5735 -2.8739
8.3333 13.8632 -2.87207
8.32305 14.2794 -2.86963
8.34067 14.611 -2.86869
8.32675 14.9527 -2.86711
8.35844 15.317 -2.8669
8.34761 15.6839 -2.86585
8.35156 16.0344 -2.86542
8.35743 16.1262 -2.86548
8.27299 -1.57399 -3.90713
8.28597 -1.42609 -3.89823
8.28864 -1.07087 -3.87542
8.2844 -0.665985 -3.84967
8.29089 -0.39656 -3.83346
8.2894 0.00560167 -3.80933
8.28909 0.35864 -3.7887
8.29369 0.668032 -3.77157
8.29451 1.09768 -3.74807
8.30227 1.38644 -3.73333
8.29307 1.80457 -3.71135
8.30283 2.14772 -3.69509
8.29923 2.46675 -3.6798
8.29816 2.85347 -3.66202
8.2848 3.18705 -3.6466
8.25526 3.55453 -3.62919
8.30671 3.87776 -3.61989
8.29079 4.30278 -3.60276
8.30126 4.63365 -3.59163
8.29955 5.0118 -3.57885
8.29935 5.35019 -3.56801
8.3232 5.34457 -3.56985
8.30361 5.68913 -3.55827
8.29632 6.09971 -3.54632
8.30202 6.37631 -3.5396
8.29904 6.77597 -3.52983
8.31264 7.12894 -3.52302
8.31152 7.49368 -3.51575
8.30085 7.84834 -3.50856
8.32085 7.84253 -3.51004
8.31564 8.22482 -3.50364
8.31229 8.5485 -3.49876
8.3148 8.88775 -3.49475
8.31094 9.30124 -3.49016
8.32492 9.58959 -3.48859
8.32079 10.0122 -3.48543
8.29976 10.3482 -3.4823
8.32387 10.3393 -3.48392
8.31921 10.6938 -3.48249
8.31396 11.057 -3.48146
8.32474 11.4124 -3.48216
8.31759 11.8146 -3.48237
8.32995 12.0967 -3.48403
8.3177 12.2634 -3.48394
8.35428 16.3773 -2.86524
8.33119 16.8134 -2.86463
8.35783 17.0678 -2.86543
8.35304 17.4852 -2.86579
8.36302 17.8191 -2.86658
8.35458 18.202 -2.86729
8.35053 18.5338 -2.86813
8.44449 18.858 -2.87134
8.43971 19.2188 -2.87257
8.44302 19.5382 -2.87402
8.34945 20.0031 -2.87427
8.3471 20.3189 -2.87591
8.32054 20.6827 -2.87752
8.29846 21.0445 -2.87935
8.30742 21.3744 -2.88177
8.30618 21.7874 -2.88469
8.29456 22.0789 -2.88667
8.29081 22.4887 -2.88987
8.26827 22.8359 -2.89236
8.29515 22.8266 -2.89275
8.28391 23.1786 -2.89562
8.26923 23.5883 -2.89908
8.28074 23.8754 -2.90196
8.44295 24.4744 -2.91038
8.29316 -1.82955 -3.92547
8.29239 -1.54577 -3.90648
8.24137 0.821653 -4.33408
8.25492 1.12892 -4.31581
8.2534 1.41004 -4.29818
8.25893 1.84724 -4.27279
8.26167 2.1554 -4.25555
8.25611 2.49667 -4.23653
8.25872 2.87542 -4.21711
8.25297 3.1752 -4.20187
8.22565 3.58838 -4.17986
8.2609 3.9134 -4.16933
8.26015 4.34392 -4.15187
8.26622 4.65187 -4.14083
8.26777 5.00632 -4.12866
8.26351 5.41015 -4.11513
8.27182 5.67847 -4.10817
8.25723 6.12182 -4.09475
8.25952 6.41238 -4.08803
8.2529 6.84302 -4.07831
8.27406 7.11591 -4.07545
8.26621 7.4941 -4.06876
8.26239 7.90938 -4.06294
8.26543 8.18982 -4.06051
8.26915 8.58268 -4.05783
8.27168 8.93954 -4.05634
8.26189 9.34122 -4.05455
8.28924 9.64997 -4.05738
8.26153 9.90228 -4.05523
8.35124 12.2437 -3.48595
8.32457 12.5138 -3.48568
8.29804 12.8485 -3.4861
8.33096 12.84 -3.48807
8.32677 13.174 -3.49041
8.31587 13.558 -3.49317
8.32573 13.8913 -3.49728
8.27892 14.2985 -3.49935
8.33031 14.6249 -3.50662
8.31029 14.9743 -3.51053
8.29281 15.3465 -3.51534
8.32615 15.3376 -3.51707
8.31908 15.6911 -3.52267
8.31761 16.0614 -3.52921
8.33196 16.3782 -3.53607
8.32254 16.8225 -3.54453
8.33105 17.0992 -3.55087
8.32694 17.5323 -3.56034
8.34146 17.8038 -3.56738
8.3267 18.2002 -3.57624
8.31497 18.5163 -3.58356
8.37253 18.6195 -3.58905
8.34441 19.6653 -3.61589
8.3418 20.0267 -3.62613
8.35356 20.3375 -3.63577
8.33344 20.6669 -3.64478
8.31869 21.0695 -3.65649
8.33772 21.3841 -3.66727
8.33116 21.8101 -3.6807
8.32987 22.0077 -3.68711
8.24312 -2.01831 -4.54599
8.25551 -1.83722 -4.5322
8.24187 -1.39326 -4.49495
8.24807 -1.08331 -4.47111
8.24258 -0.655595 -4.43798
8.23616 -0.331369 -4.41326
8.25163 -0.33464 -4.41502
8.24803 0.0168319 -4.38953
8.24937 0.38019 -4.36431
8.25002 0.701965 -4.34281
8.1887 2.75309 -4.77747
8.20377 2.93424 -4.76934
8.18967 3.20049 -4.75294
8.19157 3.62071 -4.73188
8.22123 3.96761 -4.71958
8.21327 4.35069 -4.70197
8.21104 4.68659 -4.68812
8.21428 5.00633 -4.67702
8.2123 5.43427 -4.66267
8.21528 5.71581 -4.65494
8.21181 6.16567 -4.64305
8.21659 6.46775 -4.63714
8.21276 6.84389 -4.62993
8.21527 7.18209 -4.62517
8.2185 7.52161 -4.62193
8.21289 7.92756 -4.61801
8.20018 8.06047 -4.61557
8.27809 10.1282 -4.05778
8.26089 10.4115 -4.05768
8.27185 10.6771 -4.06088
8.26881 11.0836 -4.06456
8.2796 11.4403 -4.07003
8.27355 11.8336 -4.07529
8.2882 12.1502 -4.08197
8.27501 12.5014 -4.08748
8.27623 12.8747 -4.09541
8.27853 13.1838 -4.10278
8.2719 13.6152 -4.11299
8.28268 13.905 -4.12184
8.26724 14.3122 -4.13228
8.28428 14.6546 -4.1443
8.26883 15.034 -4.15543
8.26888 15.3802 -4.16732
8.27485 15.6945 -4.17917
8.26816 16.0904 -4.19348
8.28144 16.4095 -4.20711
8.27493 16.8281 -4.22367
8.28371 17.1572 -4.23827
8.27429 17.5452 -4.25453
8.26726 17.8846 -4.26922
8.27452 18.1911 -4.28406
8.2602 18.4784 -4.29656
8.34252 22.1419 -3.69209
8.32953 22.5377 -3.70484
8.36169 22.8464 -3.71669
8.33772 23.2088 -3.72831
8.32252 23.5959 -3.74136
8.35361 23.8184 -3.75056
8.3159 24.372 -3.76923
8.39386 24.5797 -3.77987
8.21136 -2.04668 -5.16086
8.19333 -1.75972 -5.13043
8.19285 -1.36373 -5.09261
8.19914 -1.02525 -5.06193
8.19414 -0.668991 -5.02939
8.18822 -0.265738 -4.99351
8.19981 0.0572823 -4.96812
8.19667 0.405065 -4.93952
8.20311 0.761848 -4.91266
8.20031 1.15447 -4.88319
8.2175 1.46898 -4.86306
8.20419 1.83735 -4.83636
8.20354 2.19288 -4.8132
8.20856 2.50009 -4.79516
8.21603 2.88111 -4.77399
8.21983 7.97808 -4.61868
8.22404 8.20858 -4.61841
8.22118 8.63589 -4.61768
8.2225 8.965 -4.61875
8.22324 9.32911 -4.62121
8.21559 9.68234 -4.62334
8.23222 9.67806 -4.62553
8.22391 10.0202 -4.62882
8.22008 10.3969 -4.63414
8.22833 10.6799 -4.64053
8.22757 11.1507 -4.65071
8.2337 11.4269 -4.65839
8.23139 11.8378 -4.66957
8.21703 12.1838 -4.67831
8.23471 12.1791 -4.6804
8.23337 12.4886 -4.69069
8.23095 12.8959 -4.70496
8.23024 13.2263 -4.71773
8.2264 13.6863 -4.73643
8.22435 13.9679 -4.74862
8.22346 14.3446 -4.76612
8.21217 14.6901 -4.7816
8.22634 14.6842 -4.78298
8.21831 15.0371 -4.80015
8.2132 15.4391 -4.82103
8.22061 15.7178 -4.83738
8.22319 16.1225 -4.86096
8.28408 18.4716 -4.29807
8.29865 18.556 -4.30323
8.26427 19.59 -4.35234
8.32264 19.6572 -4.36011
8.27289 20.0218 -4.37565
8.27059 20.3836 -4.39482
8.27475 20.7151 -4.41327
8.27215 21.1261 -4.43595
8.27424 21.4256 -4.45306
8.26864 21.8675 -4.47818
8.28229 22.1691 -4.49674
8.27528 22.541 -4.51843
8.27275 22.8901 -4.53927
8.27586 23.2119 -4.55914
8.25426 23.667 -4.58599
8.29377 23.8543 -4.60017
8.17349 -1.98558 -5.77009
8.17707 -1.71003 -5.73939
8.17664 -1.34395 -5.69902
8.15889 -0.993094 -5.65854
8.17571 -0.996828 -5.66166
8.17596 -0.646356 -5.62562
8.17764 -0.284309 -5.58961
8.17907 0.0544802 -5.55731
8.18331 0.463959 -5.52027
8.18206 0.745385 -5.49512
8.18784 1.18198 -5.4593
8.1846 1.49275 -5.43367
8.19274 1.84528 -5.40824
8.17866 2.21272 -5.37911
8.19141 2.53932 -5.35915
8.20053 2.91906 -5.33631
8.16922 3.24163 -5.31154
8.17275 3.63846 -5.29027
8.2073 3.9482 -5.28033
8.20293 4.34491 -5.26119
8.19373 4.74197 -5.24278
8.21169 5.01412 -5.23582
8.2085 5.44412 -5.22083
8.21471 5.73451 -5.21362
8.20654 6.15209 -5.20205
8.21631 6.48253 -5.19711
8.20131 6.86175 -5.1888
8.18697 7.24151 -5.18205
8.24675 7.19026 -5.19295
8.21418 7.52907 -5.18503
8.20938 7.94446 -5.1831
8.21165 8.23401 -5.18409
8.21364 8.68566 -5.18729
8.21802 8.96245 -5.19081
8.2079 9.34311 -5.1947
8.21326 9.70417 -5.20208
8.24197 9.69812 -5.20682
8.21442 10.0309 -5.20969
8.20958 10.447 -5.21976
8.2199 10.7479 -5.23061
8.2123 11.1596 -5.24339
8.22444 11.4867 -5.25762
8.21901 11.8813 -5.27322
8.20902 12.2087 -5.28614
8.246 12.195 -5.29143
8.21351 12.495 -5.3007
8.20924 12.9498 -5.32328
8.22226 13.2577 -5.34223
8.21132 13.6456 -5.36302
8.21534 13.9909 -5.38462
8.20635 14.3147 -5.40403
8.22506 16.3022 -4.87178
8.22926 16.4376 -4.8804
8.22383 16.8504 -4.90528
8.21244 17.1931 -4.92577
8.22704 17.1887 -4.92707
8.2233 17.4792 -4.94568
8.21788 17.9096 -4.97389
8.22296 18.2558 -4.99829
8.21764 18.6646 -5.02662
8.21861 18.9817 -5.04962
8.2159 19.3483 -5.07644
8.20571 19.7006 -5.10192
8.22177 19.6965 -5.10318
8.2134 20.0609 -5.13038
8.21517 20.4181 -5.15842
8.21514 20.7312 -5.1833
8.21578 21.0543 -5.20938
8.14742 -1.9756 -6.39224
8.15278 -1.68648 -6.35585
8.14552 -1.29122 -6.30506
8.1445 -0.969344 -6.26569
8.14574 -0.659129 -6.22965
8.14012 -0.20081 -6.17672
8.15118 0.0376902 -6.15311
8.15041 0.450872 -6.10985
8.1581 0.806409 -6.07597
8.15431 1.21388 -6.03694
8.15304 1.51967 -6.00904
8.17357 1.51679 -6.01352
8.16297 1.88624 -5.98013
8.15217 2.26725 -5.94729
8.16828 2.55844 -5.92881
8.14596 3.02997 -5.89131
8.13825 3.24174 -5.87581
8.1486 3.65407 -5.85331
8.15321 4.0127 -5.8344
8.17834 4.0068 -5.84003
8.17943 4.31179 -5.82529
8.16943 4.72519 -5.8045
8.17904 5.05125 -5.79391
8.16902 5.48088 -5.77729
8.18208 5.76309 -5.77203
8.17363 6.17815 -5.76078
8.14873 6.50987 -5.74949
8.17834 6.50696 -5.75582
8.17559 6.87686 -5.75081
8.15338 7.2413 -5.74339
8.1758 7.55112 -5.74755
8.17028 7.97948 -5.74766
8.18396 8.26298 -5.75279
8.17783 8.69472 -5.75733
8.19921 8.96734 -5.76654
8.17958 9.3761 -5.77197
8.17059 9.72651 -5.77974
8.18199 10.0567 -5.79291
8.18056 10.4707 -5.80796
8.1895 10.8109 -5.82401
8.1775 11.1503 -5.83742
8.19924 11.4697 -5.85764
8.18877 11.9022 -5.87944
8.16796 12.218 -5.89392
8.1872 12.5486 -5.91852
8.18147 12.9761 -5.94601
8.17826 13.1704 -5.95903
8.21352 14.5763 -5.42234
8.20391 14.7155 -5.43035
8.24351 14.7047 -5.4355
8.2075 15.0408 -5.45363
8.19391 15.4585 -5.48189
8.21544 15.7416 -5.50628
8.20319 16.1825 -5.53883
8.21539 16.4776 -5.56416
8.20808 16.8696 -5.5956
8.1839 17.2576 -5.62525
8.20597 17.4972 -5.64916
8.20019 17.964 -5.69
8.20428 18.235 -5.71535
8.19827 18.6896 -5.7571
8.20202 18.9475 -5.78215
8.21453 21.2419 -5.22456
8.21367 21.488 -5.24473
8.20882 21.8991 -5.27861
8.20269 22.21 -5.3043
8.21971 22.2042 -5.30534
8.20613 22.5499 -5.33377
8.20158 22.9522 -5.36826
8.20505 23.2395 -5.3938
8.1581 23.7365 -5.43406
8.24101 -2.15172 -6.4331
8.07554 -1.14079 -6.89485
8.07005 -0.904725 -6.86175
8.07739 -0.628424 -6.82716
8.07896 -0.183936 -6.77134
8.07492 0.124707 -6.73302
8.07609 0.487251 -6.69146
8.07456 0.836457 -6.6522
8.09009 0.834901 -6.65608
8.08684 1.14613 -6.62265
8.08186 1.54811 -6.58108
8.08801 1.87619 -6.55171
8.08439 2.30147 -6.51334
8.09105 2.60943 -6.4896
8.09039 2.99057 -6.46047
8.01483 3.356 -6.41591
8.08785 3.31192 -6.43693
8.09012 3.65733 -6.41532
8.09224 4.04076 -6.39307
8.1054 4.35978 -6.37972
8.09938 4.78814 -6.35827
8.10564 5.07958 -6.34805
8.10064 5.50969 -6.33239
8.10437 5.8158 -6.32471
8.10036 6.15552 -6.31652
8.09389 6.54101 -6.30863
8.10949 6.84555 -6.30973
8.10155 7.25157 -6.30614
8.10644 7.60772 -6.30829
8.11118 8.05206 -6.31378
8.12244 8.28055 -6.31979
8.1096 8.67973 -6.32491
8.10541 9.07597 -6.33423
8.11394 9.34693 -6.34513
8.11427 9.77607 -6.36111
8.11657 10.0779 -6.37469
8.1091 10.5166 -6.39433
8.11571 10.7843 -6.41013
8.10942 11.1663 -6.4312
8.09941 11.5822 -6.45547
8.11251 11.8511 -6.4772
8.0934 12.1216 -6.49233
8.19283 13.3029 -5.97135
8.17427 13.7046 -5.99807
8.14075 14.0209 -6.01666
8.19505 13.9757 -6.02303
8.16902 14.3376 -6.04791
8.14882 14.7771 -6.08171
8.17434 15.0422 -6.10986
8.15882 15.4951 -6.14874
8.17706 15.7874 -6.17974
8.1679 16.1972 -6.21846
8.13265 16.53 -6.24611
8.19244 16.5097 -6.25417
8.16661 16.8544 -6.28571
8.15638 17.2433 -6.32536
8.21677 19.0182 -5.79085
8.19634 19.3861 -5.82419
8.19485 19.7405 -5.85916
8.23219 19.7212 -5.8619
8.19893 20.0414 -5.89012
8.18892 20.4538 -5.93123
8.19727 20.7693 -5.96521
8.19338 21.2028 -6.01076
8.20831 21.5143 -6.04603
8.19122 21.9044 -6.08667
8.17068 22.2762 -6.12547
8.19046 22.5146 -6.15443
8.07873 -1.97031 -7.01358
8.07492 -1.65154 -6.96622
8.09349 -1.65461 -6.97084
8.08041 -1.33773 -6.92325
8.12566 12.0924 -6.49751
8.1136 12.2875 -6.5095
8.10954 12.6171 -6.53459
8.10683 13.0212 -6.56783
8.11224 13.2896 -6.59246
8.10095 13.719 -6.62966
8.09473 14.0926 -6.66434
8.10143 14.3845 -6.69529
8.08991 14.7808 -6.7342
8.09241 15.0969 -6.76891
8.08549 15.5029 -6.81312
8.0941 15.8406 -6.85393
8.08356 15.9811 -6.86843
8.17395 17.323 -6.33692
8.17327 17.5633 -6.36321
8.15555 18.0137 -6.41078
8.17233 18.2882 -6.44493
8.15605 18.7137 -6.49219
8.13517 19.0511 -6.5292
8.1712 19.0312 -6.53241
8.15541 19.3875 -6.57334
8.14423 19.7594 -6.61762
8.15917 20.0549 -6.65708
8.15032 20.4953 -6.71207
8.18769 22.7488 -6.18052
8.18281 22.9545 -6.20338
8.18489 23.2954 -6.24271
8.17997 23.6734 -6.286
8.09133 16.2594 -6.90356
8.08317 16.565 -6.9395
8.08992 16.8763 -6.98017
8.08047 17.3229 -7.03603
8.09648 17.6359 -7.0806
8.08506 18.0314 -7.13211
8.05093 18.3626 -7.17152
8.08118 18.354 -7.17596
8.07808 18.681 -7.22165
8.06789 19.0652 -7.27489
8.15944 20.6823 -6.73761
8.16081 20.7984 -6.75297
8.15124 21.2161 -6.80669
8.128 21.5549 -6.84865
8.17574 21.5551 -6.85544
8.15276 21.8742 -6.89545
8.12647 22.3023 -6.95051
8.16102 22.5868 -6.9948
8.12486 23.0233 -7.05122
8.16626 23.3042 -7.09659
8.11571 23.5521 -7.12539
8.07596 19.1384 -7.28702
8.07263 19.4132 -7.32677
8.06898 19.8018 -7.38404
8.07393 20.1361 -7.43553
8.06738 20.5433 -7.49716
8.05104 20.8757 -7.54622
8.07136 20.8661 -7.54817
8.06139 21.2072 -7.60056
8.05128 21.6302 -7.66675
8.05617 21.7612 -7.68879
8.14299 23.7518 -7.15774
8.05608 21.9447 -7.71871
8.04799 22.3421 -7.78284
8.0492 22.6713 -7.83788
8.04055 23.0402 -7.89873
8.03221 23.3846 -7.95597
8.03246 23.6458 -8.0009
-33.1864 -3.54385 0.149299
-33.1841 -3.19499 0.146105
-33.1292 -2.8862 0.138366
-33.1367 -2.56865 0.137215
-33.1599 -2.15548 0.137592
-33.1211 -2.17011 0.133756
-33.1282 -1.8177 0.133479
-33.1272 -1.4534 0.132763
-33.0945 -1.14756 0.12949
-33.0932 -0.744079 0.129904
-33.081 -0.415575 0.129683
-33.0953 0.0190927 0.133232
-33.0828 0.287201 0.133595
-33.1244 0.686071 0.141056
-33.1962 1.0907 0.152382
-33.1099 1.36345 0.146544
-33.1867 1.80937 0.160266
-33.2557 2.13537 0.172226
-33.2293 2.12838 0.169375
-33.2273 2.46913 0.174796
-33.2189 2.7893 0.179537
-33.0817 2.87319 0.166789
-33.1155 3.1827 0.17647
-33.155 3.58944 0.189232
-33.1357 3.87455 0.193796
-33.128 4.2959 0.203361
-33.1073 4.613 0.209546
-33.1181 5.01476 0.222032
-33.0982 5.2876 0.227999
-33.1131 5.66656 0.241503
-33.1565 5.98537 0.25651
-33.2953 -3.5912 -0.802199
-33.2462 -3.50655 -0.805218
-33.2536 -3.16551 -0.803793
-33.2459 -2.83175 -0.803134
-33.2507 -2.52118 -0.801365
-33.2479 -2.08164 -0.799074
-33.2486 -1.80042 -0.797113
-33.2521 -1.38104 -0.793583
-33.2491 -1.04985 -0.790843
-33.2538 -0.663996 -0.786586
-33.252 -0.328652 -0.783002
-33.2462 0.0297429 -0.778935
-33.252 0.391831 -0.773703
-33.2507 0.700749 -0.76928
-33.2509 1.09501 -0.763088
-33.2401 1.44941 -0.757873
-33.2684 1.8023 -0.749503
-33.2994 2.2118 -0.739497
-33.3 2.50428 -0.733422
-33.2642 2.87788 -0.727876
-33.24 3.19319 -0.722387
-33.2443 3.61965 -0.711869
-33.2431 3.94791 -0.703685
-33.2485 4.31309 -0.693611
-33.2515 4.66442 -0.683756
-33.2336 4.66016 -0.685124
-33.2463 5.0028 -0.674329
-33.2593 5.4162 -0.661029
-33.2555 5.69235 -0.652665
-33.2608 6.05615 -0.640542
-33.3412 -3.59858 -1.75939
-33.3211 -3.50572 -1.7588
-33.3034 -3.51075 -1.75943
-33.3172 -3.16568 -1.75421
-33.3178 -2.75685 -1.74832
-33.3113 -2.47953 -1.74435
-33.3116 -2.03843 -1.73743
-33.3145 -1.72382 -1.73221
-33.3182 -1.34102 -1.72556
-33.3208 -1.00882 -1.71965
-33.3029 -1.01105 -1.72028
-33.309 -0.669622 -1.71382
-33.3128 -0.295132 -1.70663
-33.3064 0.0328891 -1.70041
-33.3082 0.459146 -1.6917
-33.3116 0.774123 -1.68498
-33.3068 1.14666 -1.67705
-33.3186 1.48813 -1.66903
-33.2994 1.48475 -1.66976
-33.3054 1.83905 -1.66136
-33.3107 2.20343 -1.65255
-33.3065 2.5325 -1.64464
-33.3049 2.95915 -1.63395
-33.2985 3.23464 -1.62704
-33.3035 3.66195 -1.61549
-33.3024 3.98411 -1.60674
-33.3018 4.31727 -1.59739
-33.3094 4.70083 -1.58613
-33.2987 5.03209 -1.57672
-33.3066 5.45132 -1.56379
-33.304 5.73279 -1.55518
-33.3054 6.0675 -1.54457
-33.335 18.0457 -2.03419
-33.3135 18.2126 -2.02778
-33.3886 -3.60405 -2.71802
-33.3737 -3.46876 -2.71465
-33.3646 -3.13378 -2.7063
-33.366 -2.71891 -2.69588
-33.3568 -2.43046 -2.68857
-33.3604 -1.99975 -2.67757
-33.3574 -1.69086 -2.66962
-33.3605 -1.35454 -2.66089
-33.3594 -0.931752 -2.64983
-33.3608 -0.639094 -2.64209
-33.3574 -0.259268 -2.63199
-33.3576 0.0691517 -2.62318
-33.3602 0.504107 -2.6114
-33.3532 0.805694 -2.60317
-33.3566 1.16196 -2.59335
-33.3637 1.56613 -2.58214
-33.3534 1.84617 -2.57429
-33.3528 2.23953 -2.5632
-33.3557 2.56767 -2.55387
-33.3603 3.00141 -2.54141
-33.3597 3.30459 -2.53265
-33.3562 3.66681 -2.52207
-33.3627 4.06576 -2.51034
-33.3487 4.33132 -2.50246
-33.3476 4.76475 -2.48952
-33.3441 5.09306 -2.47962
-33.3485 5.48608 -2.46768
-33.3436 5.76804 -2.45906
-33.3466 6.17054 -2.44663
-33.3469 6.52559 -2.43561
-33.3434 6.83362 -2.42595
-33.3472 7.26471 -2.41235
-33.3427 7.55471 -2.40313
-33.3455 7.94796 -2.39053
-33.3384 8.3026 -2.37908
-33.3488 8.46732 -2.37374
-33.4127 -3.59624 -3.67922
-33.4162 -3.40248 -3.67235
-33.4088 -3.07443 -3.66031
-33.412 -2.68266 -3.64641
-33.3969 -2.36409 -3.63457
-33.4062 -1.98007 -3.62133
-33.4046 -1.6446 -3.60949
-33.4078 -1.33475 -3.59879
-33.4029 -0.897523 -3.58345
-33.4038 -0.615241 -3.57375
-33.4024 -0.230988 -3.56054
-33.3974 0.135799 -3.54788
-33.4049 0.513179 -3.5354
-33.4011 0.849547 -3.52397
-33.3981 1.1725 -3.5131
-33.4051 1.60153 -3.49914
-33.3993 1.88175 -3.48972
-33.396 2.30238 -3.47588
-33.3954 2.6328 -3.46515
-33.4007 2.9961 -3.45366
-33.4053 3.34999 -3.44251
-33.4035 3.67127 -3.43227
-33.4047 4.09743 -3.41889
-33.3941 4.37407 -3.40989
-33.3922 4.81401 -3.39619
-33.3899 5.12802 -3.38646
-33.3878 5.50055 -3.37503
-33.3999 5.84515 -3.36502
-33.3831 5.83991 -3.36459
-33.3868 6.19238 -3.35415
-33.3919 6.55689 -3.34346
-33.39 6.8857 -3.33368
-33.3927 7.31268 -3.32127
-33.3855 7.58772 -3.31302
-33.3848 7.99808 -3.30117
-33.3771 8.33635 -3.29122
-33.3858 8.66184 -3.2823
-33.3968 9.05629 -3.27158
-33.3863 9.39043 -3.26189
-33.38 9.80415 -3.25023
-33.3775 10.0851 -3.24244
-33.3826 10.5135 -3.23097
-33.375 10.8333 -3.22208
-33.3773 11.1693 -3.21318
-33.3838 11.5531 -3.20321
-33.3698 11.8713 -3.19436
-33.3797 12.2649 -3.18443
-33.3709 12.5913 -3.17568
-33.3742 13.0215 -3.16476
-33.3655 13.3289 -3.15664
-33.3685 13.6842 -3.14779
-33.3694 14.0873 -3.13773
-33.3626 14.3565 -3.13083
-33.3662 14.7621 -3.12096
-33.3657 15.1192 -3.11222
-33.3634 15.5115 -3.10265
-33.3524 15.7908 -3.09557
-33.3625 16.1886 -3.08643
-33.3651 16.5547 -3.07786
-33.3596 16.8547 -3.07064
-33.3572 17.2883 -3.06047
-33.3565 17.457 -3.05654
-33.358 17.622 -3.05279
-33.3584 17.9742 -3.04474
-33.3447 18.3264 -3.03627
-33.3545 18.6942 -3.02831
-33.3516 19.0451 -3.02035
-33.3435 19.2795 -3.01487
-33.5675 -3.40098 -4.64472
-33.6547 -2.9353 -4.62878
-33.5845 -2.72632 -4.61439
-33.5863 -2.30753 -4.59536
-33.5222 -2.03981 -4.57895
-33.5811 -1.53909 -4.56072
-33.5173 -1.31052 -4.54635
-33.5696 -0.863681 -4.53067
-33.6329 -0.551816 -4.52177
-33.4775 -0.565198 -4.51165
-33.5605 -0.16205 -4.50054
-33.6103 0.243532 -4.48731
-33.4311 0.163456 -4.47819
-33.5335 0.478776 -4.4725
-33.5786 0.943815 -4.45713
-33.5114 1.26116 -4.44008
-33.5631 1.60563 -4.43047
-33.6345 1.99906 -4.4206
-33.528 1.95284 -4.4149
-33.5504 2.34057 -4.40216
-33.5757 2.68463 -4.39142
-33.4801 3.03072 -4.37246
-33.4565 3.3842 -4.35845
-33.4507 3.71954 -4.34658
-33.451 4.13394 -4.33274
-33.4436 4.42284 -4.32275
-33.4464 4.85342 -4.30917
-33.4443 5.16198 -4.29935
-33.4443 5.49827 -4.28908
-33.4506 5.88328 -4.27797
-33.4387 6.20078 -4.26789
-33.4412 6.59333 -4.25686
-33.439 6.92146 -4.24759
-33.4385 7.35531 -4.23586
-33.4356 7.65653 -4.22772
-33.4355 8.02076 -4.21842
-33.4415 8.41725 -4.20895
-33.4316 8.68601 -4.20179
-33.4347 9.09129 -4.19245
-33.4339 9.44781 -4.18427
-33.4366 9.85344 -4.17553
-33.4266 10.1216 -4.16908
-33.4322 10.5257 -4.16111
-33.4346 10.8822 -4.15411
-33.4312 11.2164 -4.14743
-33.4289 11.6185 -4.13974
-33.4248 11.9448 -4.13359
-33.4283 12.3397 -4.127
-33.4186 12.6567 -4.12103
-33.4237 13.0421 -4.11521
-33.4224 13.3777 -4.10992
-33.422 13.6874 -4.10532
-33.4216 14.1252 -4.09906
-33.417 14.4068 -4.09494
-33.4174 14.8217 -4.08958
-33.415 15.1584 -4.08525
-33.4163 15.5361 -4.08092
-33.4149 15.8732 -4.07703
-33.4149 16.1966 -4.07361
-33.4159 16.6237 -4.06937
-33.4099 16.9052 -4.06631
-33.4139 17.2239 -4.06368
-33.4098 17.4058 -4.06184
-33.4085 17.6567 -4.05967
-33.4101 18.0203 -4.05694
-33.412 18.3725 -4.05445
-33.3958 18.369 -4.05344
-33.4031 18.7108 -4.05159
-33.3994 19.0845 -4.04897
-33.4013 19.3173 -4.04772
-33.6957 3.5265 -7.17737
-33.7486 3.91277 -7.17068
-33.6648 4.22072 -7.1439
-33.7393 4.61944 -7.14227
-33.6473 4.88639 -7.11665
-33.7127 5.31635 -7.11408
-33.808 5.71871 -7.11857
-33.623 5.64963 -7.08797
-33.6882 6.00069 -7.08951
-33.7589 6.37667 -7.09201
-33.5995 6.34846 -7.06458
-33.6559 6.69834 -7.06608
-33.7216 7.08319 -7.06911
-33.6366 7.36782 -7.04839
-33.6841 7.70212 -7.05061
-33.6556 8.56813 -7.03293
-33.7419 8.90011 -7.04426
-33.5989 8.84796 -7.01977
-33.635 9.18491 -7.02295
-33.6829 9.57531 -7.02839
-33.6409 9.86287 -7.01954
-33.6813 10.3122 -7.0251
-33.6127 10.5717 -7.01286
-33.6536 11.0126 -7.02034
-33.7296 11.3757 -7.03449
-33.5667 11.3399 -7.00625
-33.6628 11.7115 -7.02471
-33.708 12.0877 -7.03502
-33.6398 12.3322 -7.02546
-33.6644 12.8586 -7.03537
-33.5943 13.1199 -7.02679
-33.6611 13.5246 -7.04413
-33.7143 13.8299 -7.05809
-33.5808 13.7924 -7.03489
-33.6433 14.2537 -7.05399
-33.7076 14.6268 -7.07238
-33.642 14.9065 -7.06758
-33.6726 15.351 -7.08337
-33.6041 15.5948 -7.07822
-33.6334 15.9987 -7.09415
-33.7023 16.1654 -7.11024
-33.7082 16.4241 -7.11882
-33.6283 16.3637 -7.10389
-33.6332 16.6863 -7.11469
-33.7045 17.101 -7.1397
-33.6289 17.4519 -7.13946
-33.6796 17.8273 -7.16113
-33.6387 18.1073 -7.16495
-33.6472 18.5399 -7.1832
-33.7078 18.9099 -7.20781
-33.5646 18.8651 -7.18322
-33.6479 18.9882 -7.20156
-25.1416 22.3331 -4.35046
-25.3369 22.3505 -4.34704
-24.4335 22.3287 -4.35822
-24.8353 22.3368 -4.35353
-23.6918 22.3051 -4.36664
-24.0701 22.3296 -4.3616
-23.4449 22.2453 -4.3729
-25.7985 22.3357 -5.13665
-26.1861 22.3709 -5.13682
-25.1319 22.3366 -5.13382
-25.4953 22.3633 -5.13435
-25.8469 22.4218 -5.13359
-24.4229 22.3327 -5.13068
-24.7797 22.3586 -5.13138
-23.7157 22.339 -5.12684
-24.0697 22.3407 -5.12862
-22.9708 22.3359 -5.1228
-23.3632 22.3615 -5.12406
-22.2712 22.2523 -5.12178
-22.7168 22.3209 -5.12188
-21.2332 22.2114 -5.11643
-21.5701 22.2196 -5.11844
-21.9454 22.2384 -5.12023
-20.5249 22.2156 -5.11105
-20.902 22.2153 -5.11387
-21.2348 22.2331 -5.11559
-19.8183 22.2072 -5.10578
-20.1721 22.2099 -5.10852
-19.1113 22.2286 -5.09894
-19.4655 22.2254 -5.10211
-18.4035 22.2461 -5.09182
-18.76 22.2496 -5.09496
-17.6613 22.2394 -5.08489
-18.0871 22.2523 -5.08855
-16.9933 22.3813 -5.07238
-17.2926 22.2929 -5.07901
-16.1975 22.3118 -5.06644
-16.6418 22.4039 -5.06769
-16.9968 22.4101 -5.07127
-15.5734 22.2406 -5.06206
-15.9986 22.2788 -5.06549
-16.2791 22.4651 -5.06126
-14.8762 22.2484 -5.0533
-15.2214 22.2522 -5.05739
-14.589 22.2818 -5.04837
-25.8277 22.2838 -5.92998
-26.1808 22.3087 -5.93706
-25.1188 22.2903 -5.9156
-25.4725 22.2966 -5.92268
-24.4113 22.2967 -5.90157
-24.7928 22.3034 -5.90903
-23.7037 22.289 -5.88795
-24.0587 22.2969 -5.89472
-22.9968 22.2989 -5.87458
-23.3514 22.3022 -5.88119
-22.2413 22.291 -5.86079
-22.6428 22.2922 -5.86808
-21.5821 22.2958 -5.84903
-21.9364 22.2939 -5.8553
-20.8868 22.3033 -5.83696
-21.2306 22.3142 -5.84279
-19.8132 22.2843 -5.81923
-20.1484 22.2927 -5.82466
-20.5195 22.298 -5.83078
-19.1073 22.2881 -5.80799
-19.477 22.2987 -5.81377
-19.8123 22.3054 -5.8191
-18.3956 22.2855 -5.79711
-18.7513 22.2937 -5.80247
-17.6906 22.2947 -5.78669
-18.0443 22.3028 -5.79181
-16.9837 22.3349 -5.77652
-17.3366 22.3212 -5.78153
-16.2377 22.3226 -5.76653
-16.6734 22.3431 -5.77225
-15.5678 22.3108 -5.75797
-15.9221 22.3126 -5.76247
-14.8584 22.2879 -5.74938
-15.2506 22.3055 -5.75405
-14.2409 22.3225 -5.74199
-14.5057 22.3022 -5.74515
-7.95361 22.2069 -5.68746
-7.42547 22.2212 -5.68417
-7.78086 22.2296 -5.68625
-6.72001 22.2319 -5.68012
-7.07385 22.2322 -5.68207
-5.96825 22.2222 -5.67631
-6.40111 22.2384 -5.67839
-5.30392 22.2315 -5.67314
-5.65809 22.2369 -5.67472
-4.23965 22.1953 -5.66898
-4.58866 22.2241 -5.67016
-4.95209 22.2477 -5.67149
-3.53196 22.2185 -5.66626
-3.87654 22.2251 -5.66743
-4.24367 22.2252 -5.66879
-2.8245 22.2316 -5.6639
-3.18106 22.236 -5.66498
-3.53802 22.2433 -5.6661
-2.11741 22.2193 -5.66199
-2.47333 22.2281 -5.6629
-2.82584 22.2641 -5.66366
-1.41185 22.2685 -5.65986
-1.76591 22.2423 -5.66092
-1.08316 22.2898 -5.65896
-33.9496 22.2657 -7.07124
-34.3036 22.2646 -7.08834
-33.2508 22.2631 -7.03777
-33.5969 22.2739 -7.05443
-32.5081 22.2503 -7.0026
-32.8988 22.2546 -7.02098
-31.8148 22.2584 -6.97067
-32.1827 22.2616 -6.98766
-30.7746 22.2311 -6.9231
-31.1197 22.2633 -6.93919
-31.5128 22.2781 -6.95722
-30.5599 22.2636 -6.91418
-30.7693 22.268 -6.92356
-27.9381 22.2676 -6.80292
-28.2185 22.2742 -6.8145
-27.2305 22.2818 -6.77496
-27.5973 22.2859 -6.78963
-26.4773 22.2704 -6.74551
-26.8768 22.2813 -6.76114
-25.8156 22.2805 -6.72091
-26.1891 22.2817 -6.73487
-25.0881 22.2654 -6.69415
-25.499 22.2801 -6.7093
-24.4015 22.2753 -6.6704
-24.7539 22.2736 -6.68255
-23.6936 22.2784 -6.6467
-24.0473 22.2888 -6.65871
-22.9385 22.2754 -6.62239
-23.3417 22.282 -6.63534
-22.2919 22.2742 -6.60257
-22.6333 22.2783 -6.61299
-21.5925 22.2871 -6.58254
-21.9234 22.2745 -6.59168
-20.5088 22.2722 -6.55273
-20.8638 22.2772 -6.56223
-21.2168 22.2864 -6.57201
-19.802 22.2716 -6.53504
-20.1828 22.2798 -6.54468
-20.5113 22.2925 -6.55336
-19.0942 22.2644 -6.51835
-19.4355 22.2751 -6.52649
-18.3877 22.2826 -6.50366
-18.7417 22.2838 -6.5112
-17.6787 22.2644 -6.48913
-18.0766 22.2929 -6.49769
-16.9733 22.3212 -6.47816
-17.3349 22.2937 -6.48369
-16.2671 22.3018 -6.46622
-16.6106 22.3153 -6.472
-15.557 22.2791 -6.45542
-15.9125 22.3047 -6.46108
-14.8499 22.2847 -6.44682
-15.2041 22.2882 -6.45115
-14.2404 22.3102 -6.44106
-14.4983 22.2995 -6.44338
-8.00455 22.2755 -6.4275
-7.41109 22.2971 -6.43168
-7.78404 22.3388 -6.43048
-6.71217 22.3013 -6.43696
-7.08094 22.3452 -6.43528
-6.00489 22.2969 -6.44312
-6.38855 22.3361 -6.4406
-5.29691 22.3127 -6.45077
-5.65146 22.3142 -6.44705
-4.59212 22.2976 -6.45857
-4.94526 22.322 -6.45494
-3.89209 22.3012 -6.46765
-4.27345 22.3292 -6.46329
-3.17859 22.3153 -6.47802
-3.5649 22.3156 -6.47247
-2.11168 22.2881 -6.49399
-2.47263 22.3326 -6.48917
-2.8328 22.3723 -6.48444
-1.4489 22.2361 -6.50411
-1.75811 22.3178 -6.50054
-2.14678 22.3648 -6.49507
-0.767838 22.2723 -6.51706
-1.03321 22.3215 -6.51326
-1.40205 22.3551 -6.50741
-26.342 22.2499 -7.54113
-25.7975 22.2957 -7.51405
-26.1317 22.2878 -7.53167
-25.0961 22.2682 -7.47578
-25.4641 22.2928 -7.49624
-24.4034 22.2671 -7.4409
-24.7484 22.3105 -7.4605
-23.6712 22.2826 -7.40672
-24.039 22.3067 -7.42548
-22.9783 22.291 -7.37572
-23.3658 22.295 -7.39333
-21.9116 22.2346 -7.32711
-22.278 22.2548 -7.34344
-22.6245 22.304 -7.36101
-21.1646 22.2204 -7.29707
-21.5613 22.2915 -7.31668
-21.8495 22.3318 -7.33049
-20.4961 22.2697 -7.27583
-20.8665 22.2938 -7.2906
-21.2156 22.3524 -7.30708
-19.7914 22.2525 -7.2511
-20.1573 22.2858 -7.26526
-20.5033 22.3177 -7.27906
-19.0878 22.2767 -7.231
-19.4403 22.2776 -7.24168
-19.7955 22.3353 -7.25642
-18.3763 22.2569 -7.20998
-18.7221 22.3064 -7.22252
-17.6721 22.282 -7.1941
-18.021 22.312 -7.20446
-16.937 22.2616 -7.17684
-17.3068 22.3286 -7.18893
-16.2567 22.2751 -7.16502
-16.6373 22.3131 -7.17435
-15.5487 22.3008 -7.15561
-15.905 22.3303 -7.16283
-14.8416 22.2954 -7.1464
-15.1955 22.3012 -7.15092
-14.1347 22.2755 -7.13844
-14.516 22.3106 -7.14402
-13.901 22.3455 -7.14122
-33.9861 22.2857 -8.03617
-33.1467 22.2499 -7.97451
-33.5427 22.2908 -8.00446
-32.4923 22.2511 -7.92855
-32.8925 22.2786 -7.95777
-31.4417 22.207 -7.85432
-31.8337 22.2521 -7.88308
-32.1761 22.2913 -7.90834
-30.7631 22.241 -7.8104
-31.093 22.2942 -7.83485
-31.5363 22.3228 -7.86597
-30.0511 22.2852 -7.76586
-30.3947 22.2735 -7.7877
-30.8134 22.3286 -7.81779
-29.3053 22.2673 -7.71741
-29.7024 22.2856 -7.74352
-28.5727 22.2286 -7.67001
-28.9868 22.2963 -7.69896
-27.9221 22.2439 -7.6315
-28.2909 22.2864 -7.65581
-27.1732 22.2797 -7.58954
-27.5732 22.3088 -7.61429
-26.5406 22.2864 -7.55411
-26.8971 22.3178 -7.57581
-26.3143 22.3471 -7.54485
-19.6943 22.1915 -7.96159
-19.0762 22.2369 -7.94255
-19.4005 22.2228 -7.95324
-18.3772 22.2349 -7.91848
-18.7109 22.2751 -7.93348
-17.635 22.2451 -7.89733
-18.0158 22.2704 -7.91082
-16.9665 22.2427 -7.87998
-17.3087 22.287 -7.89279
-16.2452 22.2476 -7.86501
-16.6005 22.2591 -7.87336
-15.502 22.2584 -7.85355
-15.9254 22.3007 -7.86449
-14.8303 22.254 -7.84473
-15.1849 22.2597 -7.84931
-14.2252 22.2434 -7.83839
-14.5161 22.2677 -7.84302
-29.2752 22.1907 -8.57121
-28.6213 22.2039 -8.51834
-28.962 22.2568 -8.55042
-27.8751 22.2283 -8.46065
-28.2478 22.2456 -8.49159
-27.2099 22.2127 -8.40797
-27.5703 22.2724 -8.44053
-26.4317 22.2312 -8.35152
-26.8662 22.274 -8.38715
-25.7929 22.2549 -8.30778
-26.1904 22.2664 -8.337
-25.0849 22.2163 -8.25581
-25.4828 22.2567 -8.28634
-24.4003 22.2298 -8.21199
-24.732 22.2375 -8.23415
-23.315 22.201 -8.14242
-23.6607 22.2311 -8.16591
-24.0294 22.258 -8.19097
-22.5836 22.198 -8.10026
-22.9649 22.2308 -8.12482
-23.3175 22.2353 -8.14566
-21.9024 22.1917 -8.06308
-22.31 22.2148 -8.08691
-22.6136 22.2514 -8.10685
-21.1927 22.2083 -8.02914
-21.5506 22.2527 -8.05097
-20.4887 22.2268 -7.99836
-20.8622 22.2472 -8.0173
-21.2196 22.3346 -8.04242
-19.8078 22.2164 -7.96858
-20.1616 22.2486 -7.98638
-19.5447 22.2604 -7.96242
-34.4686 22.2245 -9.04728
-33.5444 22.1455 -8.95244
-33.9276 22.2174 -8.99419
-34.287 22.2624 -9.03203
-32.8611 22.1883 -8.89042
-33.2165 22.1985 -8.92477
-33.6385 22.2591 -8.96912
-32.0972 22.1574 -8.8171
-32.5203 22.1893 -8.8586
-32.8663 22.2201 -8.8931
-31.4011 22.1812 -8.75534
-31.8246 22.2068 -8.79566
-30.7169 22.186 -8.69469
-31.1036 22.2343 -8.73257
-31.4468 22.2669 -8.76567
-30.0622 22.1917 -8.63809
-30.406 22.236 -8.67121
-29.4079 22.2125 -8.58404
-29.7075 22.2439 -8.61176
-29.2832 22.3019 -8.5805
-24.7205 22.1643 -9.00889
-24.8549 22.1656 -9.02004
-24.0094 22.1674 -8.95291
-24.3672 22.175 -8.98191
-24.7199 22.1814 -9.01089
-23.3404 22.1601 -8.90179
-23.6147 22.1737 -8.92382
-22.5993 22.1715 -8.85087
-22.952 22.1733 -8.87565
-21.8915 22.1696 -8.80401
-22.2814 22.1676 -8.82911
-21.1843 22.1685 -8.76068
-21.5569 22.1781 -8.78426
-20.4776 22.1716 -8.72141
-20.8317 22.1824 -8.74228
-19.7341 22.1736 -8.68382
-20.1245 22.1796 -8.70397
-19.0671 22.1789 -8.65402
-19.4161 22.1717 -8.6686
-18.3562 22.1775 -8.62504
-18.71 22.1873 -8.64016
-17.6011 22.1831 -8.59944
-18.0025 22.1888 -8.61357
-16.9414 22.1806 -8.57972
-17.2951 22.1884 -8.59064
-16.2342 22.1855 -8.5634
-16.5898 22.1831 -8.57101
-15.1714 22.1784 -8.54424
-15.5002 22.1902 -8.5506
-15.8812 22.1936 -8.55738
-14.4606 22.1906 -8.53884
-14.8202 22.1957 -8.54273
-15.1732 22.2003 -8.54724
-13.7554 22.173 -8.53344
-14.1107 22.1853 -8.53626
-14.4712 22.2248 -8.54356
-13.051 22.1763 -8.53479
-13.4035 22.1836 -8.53493
-12.3428 22.1972 -8.54241
-12.7119 22.1987 -8.53968
-11.6337 22.1872 -8.54981
-11.979 22.1924 -8.54582
-10.9485 22.1924 -8.56257
-11.2724 22.2056 -8.55819
-10.1771 22.1876 -8.57971
-10.573 22.1925 -8.57068
-9.51058 22.1929 -8.59925
-9.86472 22.1895 -8.58837
-8.76919 22.2105 -8.62615
-9.15694 22.2111 -8.61284
-8.09462 22.1952 -8.64994
-8.45186 22.2098 -8.63773
-7.38714 22.2113 -8.68219
-7.74186 22.2196 -8.6676
-6.32474 22.1756 -8.72912
-6.7011 22.1921 -8.7122
-7.01425 22.2377 -8.70261
-5.61429 22.1961 -8.76985
-5.97026 22.203 -8.75125
-6.32684 22.2116 -8.7334
-5.42023 22.206 -8.78204
-5.61522 22.2293 -8.77379
-30.7195 22.1391 -9.58714
-29.9859 22.1449 -9.50784
-30.4108 22.1507 -9.55446
-29.3137 22.1456 -9.43664
-29.6895 22.1514 -9.47685
-28.6211 22.157 -9.36647
-28.9608 22.1578 -9.40129
-27.9009 22.1615 -9.29504
-28.2528 22.1567 -9.32932
-27.168 22.1598 -9.2242
-27.535 22.1696 -9.26029
-26.4605 22.1688 -9.15958
-26.8418 22.1722 -9.19497
-25.4237 22.1411 -9.06479
-25.7805 22.1672 -9.09877
-26.1714 22.1781 -9.1345
-25.1469 22.1627 -9.04397
-25.429 22.1673 -9.06833
-20.4442 22.1723 -9.45535
-20.6703 22.1867 -9.47211
-19.7327 22.1837 -9.41482
-20.1439 22.2053 -9.44237
-19.0538 22.1918 -9.37996
-19.4166 22.2199 -9.40349
-18.369 22.1889 -9.34726
-18.6714 22.2364 -9.3689
-17.6359 22.2079 -9.3209
-18.0009 22.2332 -9.33921
-16.5744 22.1378 -9.27511
-16.9161 22.2085 -9.29698
-17.2605 22.2531 -9.31534
-16.2455 22.2085 -9.27909
-16.5844 22.2852 -9.30058
-15.1633 22.1916 -9.25636
-15.5092 22.2214 -9.26666
-15.8748 22.2696 -9.2814
-14.4166 22.1703 -9.24582
-14.8193 22.2207 -9.25764
-15.1638 22.2277 -9.26256
-13.7468 22.18 -9.24593
-14.1017 22.1881 -9.24773
-14.4558 22.2345 -9.25703
-13.0449 22.1778 -9.24859
-13.3947 22.1999 -9.25039
-12.3272 22.2185 -9.26349
-12.6498 22.2492 -9.26464
-11.6608 22.1826 -9.26924
-11.9961 22.2339 -9.27152
-10.9113 22.2072 -9.29159
-11.2652 22.2497 -9.28949
-10.1337 22.1833 -9.31202
-10.5945 22.2589 -9.30947
-9.73995 22.1516 -9.32111
-9.88982 22.2088 -9.32491
-4.90641 22.1778 -8.80874
-5.17926 22.2126 -8.79675
-4.19829 22.1879 -8.85383
-4.55303 22.2026 -8.83328
-3.4982 22.181 -8.89905
-3.88702 22.1874 -8.87395
-2.75816 22.1914 -8.95162
-3.12818 22.2085 -8.92754
-2.45147 22.2081 -8.97556
-34.9676 22.1294 -10.0868
-35.3144 22.1316 -10.1305
-34.2608 22.1362 -10.0001
-34.6405 22.1375 -10.047
-34.9669 22.1527 -10.0888
-33.5151 22.1287 -9.90895
-33.8764 22.1359 -9.95331
-32.8353 22.1303 -9.82813
-33.2272 22.1357 -9.87517
-32.1387 22.1304 -9.74674
-32.4938 22.1311 -9.78811
-31.4333 22.1335 -9.66636
-31.7831 22.1345 -9.70626
-30.8558 22.1432 -9.60263
-31.0808 22.1463 -9.62803
-26.827 22.11 -10.0108
-27.0269 22.1702 -10.0419
-26.0749 22.0896 -9.92572
-26.4586 22.1931 -9.98237
-26.8783 22.2492 -10.0366
-25.4129 22.1494 -9.86547
-25.7952 22.191 -9.91126
-26.1203 22.2311 -9.9514
-24.7126 22.1644 -9.79797
-25.0439 22.182 -9.83329
-25.4158 22.194 -9.87244
-23.9675 22.1565 -9.72641
-24.3564 22.1937 -9.76844
-24.711 22.2006 -9.80332
-23.293 22.167 -9.66795
-23.6746 22.189 -9.70504
