# .PCD v0.7 - Point Cloud Data file format
VERSION 0.7
FIELDS x y z
SIZE 4 4 4
TYPE F F F
COUNT 1 1 1
WIDTH 1860
HEIGHT 1
VIEWPOINT 0 0 0 2.98023e-07 1 0 -0
POINTS 1860
DATA ascii
-26.4597 -1.16482 -2.46201
-26.4602 -0.809767 -2.45095
-26.4569 -0.501733 -2.44127
-26.461 -0.0706485 -2.42763
-26.4568 0.219354 -2.41838
-26.4598 0.612598 -2.40574
-26.453 0.967247 -2.39427
-26.4635 1.13196 -2.38891
-26.5187 -10.9315 -3.6955
-26.5223 -10.7378 -3.68861
-26.5152 -10.4097 -3.67653
-26.5186 -10.018 -3.66261
-26.5037 -9.69937 -3.65073
-26.5133 -9.31536 -3.63746
-26.512 -8.97989 -3.62558
-26.5154 -8.67004 -3.61485
-26.5108 -8.23281 -3.59947
-26.512 -7.95053 -3.58975
-26.5108 -7.56628 -3.5765
-26.5061 -7.19949 -3.56381
-26.5138 -6.82212 -3.5513
-26.5103 -6.48575 -3.53984
-26.5076 -6.1628 -3.52894
-26.5149 -5.73376 -3.51493
-26.5092 -5.45354 -3.5055
-26.5063 -5.03292 -3.49161
-26.5059 -4.7025 -3.48085
-26.5114 -4.33921 -3.46933
-26.5163 -3.98532 -3.45814
-26.5148 -3.66404 -3.44787
-26.5162 -3.23788 -3.43446
-26.5059 -2.96123 -3.42543
-26.5043 -2.52129 -3.41169
-26.5022 -2.20728 -3.40193
-26.5004 -1.83475 -3.39047
-26.5127 -1.49016 -3.38043
-26.4959 -1.49539 -3.38
-26.4999 -1.14292 -3.36953
-26.5052 -0.778419 -3.3588
-26.5035 -0.449607 -3.34899
-26.5066 -0.0226242 -3.33654
-26.4996 0.252417 -3.32827
-26.4992 0.662773 -3.31638
-26.4917 1.00105 -3.3064
-26.5007 1.32653 -3.29745
-26.5119 1.72098 -3.28669
-26.5017 2.05512 -3.27698
-26.4956 2.46885 -3.26528
-26.4934 2.74979 -3.25746
-26.4988 3.17814 -3.24595
-26.4914 3.49795 -3.23703
-26.494 3.83402 -3.22809
-26.5007 4.21776 -3.21809
-26.487 4.53601 -3.20922
-26.4972 4.9296 -3.19925
-26.4887 5.25596 -3.19047
-26.4923 5.68619 -3.17951
-26.4838 5.99364 -3.17136
-26.487 6.34889 -3.16248
-26.4882 6.75194 -3.15238
-26.4816 7.02115 -3.14545
-26.4855 7.42675 -3.13555
-26.4853 7.78386 -3.12678
-26.4833 8.17622 -3.11717
-26.4725 8.45547 -3.11006
-26.4828 8.85326 -3.10089
-26.4857 9.21936 -3.09228
-26.4804 9.5194 -3.08504
-26.4783 9.953 -3.07482
-26.4778 10.1217 -3.07088
-26.4794 10.2867 -3.06712
-26.48 10.6389 -3.05903
-26.4666 10.9911 -3.05054
-26.4767 11.3589 -3.04254
-26.474 11.7098 -3.03454
-26.466 11.9442 -3.02904
-26.6736 -10.7363 -4.66097
-26.7612 -10.2707 -4.64499
-26.6911 -10.0616 -4.63058
-26.6933 -9.64286 -4.61152
-26.6293 -9.37509 -4.59508
-26.6886 -8.87442 -4.5768
-26.625 -8.6458 -4.56241
-26.6775 -8.199 -4.54669
-26.7411 -7.88719 -4.53776
-26.5856 -7.90046 -4.52764
-26.669 -7.49737 -4.51649
-26.7191 -7.09183 -4.50323
-26.5398 -7.17177 -4.49412
-26.6425 -6.85653 -4.4884
-26.6878 -6.39152 -4.47298
-26.6209 -6.07413 -4.45591
-26.6728 -5.7297 -4.44626
-26.7445 -5.33632 -4.43635
-26.638 -5.38247 -4.43066
-26.6607 -4.99475 -4.41789
-26.6862 -4.65071 -4.40711
-26.5909 -4.30455 -4.38812
-26.5676 -3.95106 -4.37409
-26.562 -3.61571 -4.36219
-26.5626 -3.20132 -4.34831
-26.5554 -2.91242 -4.33829
-26.5585 -2.48183 -4.32466
-26.5567 -2.17327 -4.31482
-26.5569 -1.83699 -4.30451
-26.5634 -1.45198 -4.29337
-26.5518 -1.13448 -4.28326
-26.5545 -0.741926 -4.2722
-26.5527 -0.413793 -4.2629
-26.5525 0.0200499 -4.25113
-26.5497 0.321275 -4.24296
-26.5499 0.685508 -4.23362
-26.5562 1.08199 -4.22412
-26.5465 1.35076 -4.21693
-26.5499 1.75603 -4.20756
-26.5494 2.11255 -4.19935
-26.5523 2.51818 -4.19057
-26.5425 2.78633 -4.18409
-26.5484 3.19041 -4.17609
-26.5511 3.54694 -4.16905
-26.548 3.88118 -4.16234
-26.546 4.28325 -4.15462
-26.5421 4.60959 -4.14844
-26.5459 5.0044 -4.14181
-26.5364 5.3214 -4.13581
-26.5417 5.70689 -4.12995
-26.5407 6.04247 -4.12463
-26.5405 6.35219 -4.12
-26.5405 6.78999 -4.11371
-26.5361 7.07155 -4.10956
-26.5368 7.4864 -4.10416
-26.5346 7.8231 -4.0998
-26.5362 8.20086 -4.09543
-26.535 8.5379 -4.09152
-26.5353 8.86132 -4.08806
-26.5366 9.28849 -4.08379
-26.5308 9.56999 -4.0807
-26.535 9.88863 -4.07804
-26.531 10.0705 -4.07619
-26.5299 10.3215 -4.07399
-26.5318 10.685 -4.07123
-26.5339 11.0373 -4.06871
-26.5178 11.0337 -4.06769
-26.5253 11.3755 -4.06582
-26.5219 11.7492 -4.06316
-26.5239 11.982 -4.06189
-26.807 -3.80867 -7.19298
-26.8601 -3.42244 -7.18626
-26.7765 -3.11443 -7.15945
-26.8513 -2.71577 -7.15778
-26.7595 -2.44875 -7.13214
-26.8252 -2.01884 -7.12953
-26.9208 -1.61655 -7.13398
-26.7358 -1.6855 -7.10339
-26.8012 -1.33448 -7.10489
-26.8722 -0.958556 -7.10736
-26.7128 -0.986654 -7.07994
-26.7694 -0.636817 -7.08141
-26.8354 -0.252016 -7.08439
-26.7506 0.0326774 -7.06366
-26.7983 0.366939 -7.06584
-26.7705 1.23297 -7.04808
-26.857 1.56489 -7.05938
-26.714 1.51284 -7.03489
-26.7503 1.84977 -7.03804
-26.7985 2.24013 -7.04345
-26.7567 2.52772 -7.03457
-26.7974 2.97702 -7.04009
-26.7291 3.23661 -7.02783
-26.7702 3.67749 -7.03527
-26.8465 4.04045 -7.04938
-26.6836 4.00476 -7.02114
-26.78 4.37633 -7.03957
-26.8254 4.75252 -7.04985
-26.7574 4.99704 -7.04027
-26.7824 5.5234 -7.05012
-26.7125 5.78482 -7.04152
-26.7796 6.18946 -7.05882
-26.8331 6.49471 -7.07275
-26.6994 6.45734 -7.04956
-26.7623 6.91854 -7.06862
-26.8269 7.29159 -7.08697
-26.7615 7.57131 -7.08215
-26.7925 8.01585 -7.0979
-26.7241 8.25967 -7.09272
-26.7537 8.66354 -7.10862
-26.8227 8.83025 -7.12469
-26.8288 9.0889 -7.13324
-26.7489 9.02852 -7.11832
-26.754 9.35117 -7.1291
-26.8255 9.76584 -7.15407
-26.7502 10.1167 -7.1538
-26.8012 10.4921 -7.17543
-26.7605 10.7722 -7.17923
-26.7694 11.2048 -7.19743
-26.8302 11.5747 -7.22201
-26.687 11.53 -7.19743
-26.7703 11.6531 -7.21575
-17.0741 16.355 -4.29718
-17.2694 16.3723 -4.29374
-16.3659 16.3512 -4.30497
-16.7678 16.359 -4.30026
-15.6243 16.3281 -4.31343
-16.0026 16.3523 -4.30836
-15.3774 16.2684 -4.3197
-17.731 16.3572 -5.08333
-18.1186 16.3922 -5.08348
-17.0645 16.3586 -5.08053
-17.4278 16.3851 -5.08105
-17.7795 16.4433 -5.08026
-16.3555 16.3553 -5.07743
-16.7123 16.3809 -5.07811
-15.6482 16.362 -5.07363
-16.0023 16.3634 -5.07538
-14.9033 16.3595 -5.06962
-15.2958 16.3848 -5.07085
-14.2036 16.2764 -5.06864
-14.6493 16.3446 -5.06871
-13.1656 16.2362 -5.06334
-13.5026 16.2442 -5.06534
-13.8778 16.2627 -5.06711
-12.4574 16.2409 -5.058
-12.8344 16.2403 -5.0608
-13.1673 16.258 -5.0625
-11.7507 16.2331 -5.05277
-12.1046 16.2355 -5.05548
-11.0437 16.255 -5.04595
-11.398 16.2515 -5.04911
-10.3359 16.273 -5.03887
-10.6925 16.2762 -5.04199
-9.5938 16.2669 -5.03197
-10.0196 16.2794 -5.03562
-8.92585 16.4092 -5.01949
-9.2251 16.3206 -5.02611
-8.13003 16.3403 -5.01359
-8.5744 16.4321 -5.01481
-8.92937 16.438 -5.01837
-7.50589 16.2696 -5.00925
-7.93114 16.3074 -5.01265
-8.21173 16.4935 -5.00839
-6.80868 16.2779 -5.00052
-7.15383 16.2814 -5.00459
-6.52147 16.3115 -4.9956
-17.7603 16.3054 -5.87667
-18.1133 16.33 -5.88372
-17.0514 16.3124 -5.86232
-17.4051 16.3184 -5.86938
-16.3438 16.3193 -5.84832
-16.7253 16.3257 -5.85576
-15.6363 16.3121 -5.83474
-15.9912 16.3197 -5.84149
-14.9294 16.3225 -5.8214
-15.2839 16.3256 -5.82799
-14.1739 16.3152 -5.80765
-14.5753 16.3161 -5.81492
-13.5147 16.3205 -5.79592
-13.8689 16.3183 -5.80217
-12.8194 16.3284 -5.78388
-13.1631 16.3391 -5.78969
-11.7458 16.3102 -5.7662
-12.0809 16.3184 -5.77162
-12.452 16.3235 -5.77772
-11.0399 16.3146 -5.755
-11.4095 16.3249 -5.76076
-11.7448 16.3314 -5.76607
-10.3282 16.3125 -5.74416
-10.6838 16.3204 -5.7495
-9.62316 16.3221 -5.73377
-9.97681 16.33 -5.73887
-8.91632 16.3629 -5.72363
-9.26918 16.3489 -5.72862
-8.17026 16.3511 -5.71367
-8.60598 16.3713 -5.71937
-7.50034 16.3398 -5.70515
-7.85463 16.3413 -5.70964
-6.79093 16.3174 -5.6966
-7.18317 16.3348 -5.70125
-6.17344 16.3524 -5.68924
-6.43827 16.332 -5.69238
0.113912 16.2414 -5.63502
0.64204 16.2561 -5.63175
0.286645 16.2643 -5.63382
1.3475 16.2674 -5.62773
0.993658 16.2674 -5.62967
2.09926 16.2582 -5.62397
1.66639 16.274 -5.62602
2.76359 16.2679 -5.62083
2.40941 16.2731 -5.62239
3.82789 16.2325 -5.61672
3.47886 16.2611 -5.61788
3.1154 16.2844 -5.61919
4.53556 16.2562 -5.61404
4.19097 16.2626 -5.61519
3.82384 16.2624 -5.61652
5.243 16.2698 -5.6117
4.88644 16.274 -5.61277
4.52948 16.281 -5.61388
5.9501 16.2581 -5.60983
5.59418 16.2666 -5.61073
5.24164 16.3024 -5.61146
6.65563 16.3078 -5.60773
6.30159 16.2813 -5.60878
6.9843 16.3293 -5.60685
-25.8822 16.2815 -7.01753
-26.2362 16.2801 -7.03461
-25.1833 16.2794 -6.98409
-25.5295 16.2899 -7.00074
-24.4406 16.2671 -6.94896
-24.8314 16.2712 -6.96732
-23.7474 16.2757 -6.91707
-24.1153 16.2787 -6.93404
-22.7071 16.2491 -6.86955
-23.0523 16.2812 -6.88562
-23.4454 16.2957 -6.90363
-22.4924 16.2819 -6.86064
-22.7018 16.286 -6.87001
-19.8707 16.2877 -6.7495
-20.1511 16.2941 -6.76107
-19.1631 16.3025 -6.72158
-19.5299 16.3063 -6.73623
-18.4098 16.2916 -6.69216
-18.8094 16.3022 -6.70777
-17.7481 16.3021 -6.66759
-18.1217 16.3031 -6.68154
-17.0206 16.2876 -6.64087
-17.4315 16.3019 -6.656
-16.334 16.2979 -6.61715
-16.6865 16.296 -6.62929
-15.6262 16.3016 -6.59349
-15.9799 16.3117 -6.60548
-14.8711 16.2991 -6.56922
-15.2743 16.3054 -6.58214
-14.2245 16.2984 -6.54943
-14.5658 16.3023 -6.55983
-13.5251 16.3118 -6.52943
-13.8559 16.299 -6.53855
-12.4414 16.2977 -6.49967
-12.7964 16.3024 -6.50915
-13.1494 16.3114 -6.51892
-11.7346 16.2976 -6.48202
-12.1153 16.3056 -6.49164
-12.4439 16.318 -6.50031
-11.0267 16.2909 -6.46536
-11.3681 16.3014 -6.47348
-10.3202 16.3096 -6.45071
-10.6743 16.3106 -6.45822
-9.61124 16.2919 -6.43621
-10.0092 16.3202 -6.44475
-8.90586 16.3493 -6.42527
-9.26748 16.3215 -6.43078
-8.1997 16.3304 -6.41336
-8.54315 16.3436 -6.41913
-7.48955 16.3082 -6.40261
-7.8451 16.3335 -6.40825
-6.78249 16.3143 -6.39404
-7.13669 16.3175 -6.39835
-6.17295 16.3402 -6.38831
-6.43092 16.3293 -6.39062
0.0628833 16.31 -6.37506
0.656334 16.3321 -6.37926
0.283355 16.3735 -6.37803
1.35525 16.3368 -6.38458
0.986449 16.3804 -6.38287
2.06253 16.3329 -6.39077
1.67884 16.3719 -6.38823
2.7705 16.3493 -6.39845
2.41594 16.3504 -6.39471
3.4753 16.3346 -6.40628
3.12215 16.3588 -6.40264
4.17533 16.3387 -6.4154
3.79394 16.3664 -6.41102
4.88881 16.3533 -6.4258
4.50251 16.3534 -6.42023
5.95574 16.327 -6.44182
5.59476 16.3712 -6.43698
5.23456 16.4106 -6.43224
6.61856 16.2754 -6.45198
6.30929 16.3569 -6.44839
5.92058 16.4036 -6.4429
7.2996 16.3121 -6.46497
7.03419 16.3611 -6.46115
6.66532 16.3945 -6.45527
-18.2745 16.2712 -7.48779
-17.7301 16.3174 -7.46073
-18.0643 16.3093 -7.47833
-17.0287 16.2904 -7.4225
-17.3967 16.3148 -7.44294
-16.336 16.2898 -7.38766
-16.681 16.333 -7.40723
-15.6038 16.3058 -7.35351
-15.9717 16.3297 -7.37225
-14.9109 16.3148 -7.32254
-15.2984 16.3185 -7.34013
-13.8442 16.2592 -7.27399
-14.2106 16.2791 -7.2903
-14.5571 16.328 -7.30785
-13.0972 16.2455 -7.24398
-13.494 16.3163 -7.26357
-13.7821 16.3564 -7.27737
-12.4287 16.2952 -7.22278
-12.7991 16.3191 -7.23752
-13.1482 16.3775 -7.25398
-11.724 16.2786 -7.19808
-12.0899 16.3116 -7.21222
-12.4359 16.3433 -7.226
-11.0204 16.3033 -7.17801
-11.3729 16.3039 -7.18868
-11.7281 16.3614 -7.20339
-10.3089 16.284 -7.15703
-10.6547 16.3333 -7.16955
-9.60466 16.3096 -7.14118
-9.95362 16.3394 -7.15152
-8.86962 16.2897 -7.12396
-9.23942 16.3565 -7.13602
-8.18927 16.3037 -7.11217
-8.56993 16.3414 -7.12148
-7.48131 16.3299 -7.1028
-7.83759 16.3592 -7.10999
-6.77422 16.325 -7.09361
-7.12815 16.3306 -7.09812
-6.0673 16.3057 -7.08569
-6.44862 16.3405 -7.09125
-5.83361 16.3759 -7.08848
-25.9187 16.3015 -7.98246
-25.0793 16.2663 -7.92084
-25.4753 16.307 -7.95077
-24.425 16.268 -7.87492
-24.8252 16.2952 -7.90411
-23.3743 16.2247 -7.80074
-23.7663 16.2695 -7.82947
-24.1087 16.3084 -7.85471
-22.6957 16.2591 -7.75684
-23.0256 16.3121 -7.78128
-23.469 16.3404 -7.81237
-21.9837 16.3039 -7.71234
-22.3273 16.2919 -7.73416
-22.746 16.3467 -7.76423
-21.2379 16.2865 -7.66393
-21.6351 16.3045 -7.69002
-20.5053 16.2483 -7.61656
-20.9194 16.3158 -7.64549
-19.8547 16.2641 -7.57809
-20.2236 16.3063 -7.60238
-19.1059 16.3005 -7.53616
-19.5059 16.3293 -7.56089
-18.4732 16.3076 -7.50075
-18.8298 16.3387 -7.52244
-18.247 16.3684 -7.4915
-11.6269 16.2177 -7.90858
-11.0088 16.2635 -7.88957
-11.3331 16.2492 -7.90024
-10.3098 16.262 -7.86553
-10.6436 16.302 -7.88051
-9.56758 16.2728 -7.84441
-9.94846 16.2978 -7.85788
-8.89913 16.2709 -7.8271
-9.24132 16.3149 -7.83989
-8.17778 16.2763 -7.81216
-8.53315 16.2876 -7.82049
-7.43463 16.2876 -7.80074
-7.85804 16.3296 -7.81165
-6.76295 16.2837 -7.79195
-7.11753 16.2892 -7.79651
-6.15779 16.2735 -7.78564
-6.44868 16.2977 -7.79025
-21.2078 16.21 -8.51774
-20.5539 16.2236 -8.46489
-20.8947 16.2763 -8.49696
-19.8077 16.2486 -8.40724
-20.1805 16.2657 -8.43816
-19.1425 16.2335 -8.3546
-19.5029 16.2929 -8.38713
-18.3643 16.2526 -8.29818
-18.7989 16.295 -8.33379
-17.7255 16.2767 -8.25447
-18.123 16.2879 -8.28366
-17.0175 16.2386 -8.20254
-17.4154 16.2787 -8.23304
-16.333 16.2526 -8.15875
-16.6646 16.26 -8.18089
-15.2476 16.2246 -8.08923
-15.5933 16.2545 -8.1127
-15.9621 16.2811 -8.13774
-14.5162 16.2221 -8.04711
-14.8975 16.2546 -8.07165
-15.2501 16.2588 -8.09247
-13.8349 16.2163 -8.00996
-14.2426 16.2391 -8.03377
-14.5462 16.2755 -8.05369
-13.1253 16.2334 -7.97606
-13.4832 16.2775 -7.99787
-12.4213 16.2524 -7.94531
-12.7948 16.2725 -7.96423
-13.1522 16.3597 -7.98932
-11.7403 16.2426 -7.91556
-12.0942 16.2745 -7.93334
-11.4773 16.2867 -7.90941
-26.4012 16.2401 -8.99355
-25.477 16.1618 -8.89876
-25.8602 16.2334 -8.94049
-26.2197 16.2781 -8.9783
-24.7937 16.205 -8.83677
-25.1491 16.2149 -8.8711
-25.5712 16.2753 -8.91543
-24.0298 16.1747 -8.76349
-24.453 16.2063 -8.80496
-24.7989 16.2368 -8.83945
-23.3337 16.1989 -8.70177
-23.7572 16.2243 -8.74206
-22.6495 16.2043 -8.64114
-23.0362 16.2523 -8.67901
-23.3795 16.2847 -8.71208
-21.9948 16.2105 -8.58458
-22.3386 16.2545 -8.61767
-21.3405 16.2317 -8.53055
-21.6402 16.2629 -8.55826
-21.2159 16.3212 -8.52701
-16.6531 16.187 -8.95564
-16.7875 16.1881 -8.96678
-15.942 16.1906 -8.8997
-16.2999 16.1979 -8.92868
-16.6526 16.204 -8.95764
-15.273 16.1838 -8.8486
-15.5473 16.1971 -8.87062
-14.5319 16.1956 -8.79772
-14.8846 16.1972 -8.82248
-13.8241 16.1943 -8.7509
-14.214 16.192 -8.77598
-13.1168 16.1937 -8.7076
-13.4895 16.203 -8.73116
-12.4102 16.1973 -8.66836
-12.7643 16.2078 -8.68921
-11.6667 16.1999 -8.63081
-12.0571 16.2056 -8.65094
-10.9997 16.2056 -8.60104
-11.3487 16.1982 -8.6156
-10.2888 16.2048 -8.57209
-10.6426 16.2142 -8.5872
-9.53373 16.2109 -8.54653
-9.93507 16.2163 -8.56064
-8.87402 16.2089 -8.52684
-9.22766 16.2163 -8.53775
-8.16678 16.2142 -8.51056
-8.52236 16.2116 -8.51815
-7.10403 16.2079 -8.49146
-7.43276 16.2195 -8.49779
-7.81381 16.2226 -8.50455
-6.39323 16.2206 -8.48608
-6.75282 16.2255 -8.48996
-7.10583 16.2299 -8.49445
-5.68802 16.2036 -8.48072
-6.0433 16.2156 -8.48352
-6.40382 16.2549 -8.4908
-4.98357 16.2074 -8.48211
-5.33606 16.2144 -8.48223
-4.27541 16.2288 -8.48976
-4.64452 16.23 -8.487
-3.56632 16.2193 -8.4972
-3.91164 16.2242 -8.49318
-2.88115 16.225 -8.50999
-3.20497 16.2379 -8.50559
-2.1097 16.2207 -8.52716
-2.50564 16.2254 -8.51811
-1.44319 16.2266 -8.54674
-1.79732 16.2229 -8.53584
-0.701808 16.2447 -8.57367
-1.08957 16.245 -8.56034
-0.027231 16.2298 -8.5975
-0.384479 16.2442 -8.58526
0.680232 16.2465 -8.62978
0.325505 16.2546 -8.61517
1.74266 16.2116 -8.67676
1.36629 16.2278 -8.65982
1.0531 16.2732 -8.65021
2.45309 16.2326 -8.71753
2.09711 16.2393 -8.6989
1.74053 16.2476 -8.68104
2.64714 16.2427 -8.72972
2.45213 16.2658 -8.72146
-22.6521 16.1574 -9.5336
-21.9186 16.1637 -9.45434
-22.3434 16.1693 -9.50094
-21.2463 16.165 -9.38317
-21.6221 16.1705 -9.42336
-20.5537 16.1769 -9.31303
-20.8935 16.1774 -9.34783
-19.8335 16.1818 -9.24163
-20.1854 16.1768 -9.27589
-19.1006 16.1807 -9.17083
-19.4676 16.1902 -9.2069
-18.3931 16.1902 -9.10625
-18.7745 16.1933 -9.14161
-17.3562 16.1632 -9.0115
-17.7131 16.189 -9.04546
-18.104 16.1997 -9.08118
-17.0795 16.185 -8.99069
-17.3616 16.1894 -9.01504
-12.3768 16.1981 -9.4023
-12.6029 16.2123 -9.41905
-11.6654 16.21 -9.36181
-12.0766 16.2313 -9.38933
-10.9864 16.2185 -9.32698
-11.3493 16.2464 -9.35049
-10.3016 16.2161 -9.29431
-10.6041 16.2635 -9.31593
-9.56856 16.2357 -9.26799
-9.9336 16.2607 -9.28628
-8.50695 16.1664 -9.22225
-8.84875 16.2369 -9.24411
-9.19318 16.2811 -9.26244
-8.17812 16.2374 -9.22625
-8.51709 16.3137 -9.24771
-7.09597 16.2212 -9.20357
-7.44184 16.2507 -9.21385
-7.80746 16.2987 -9.22856
-6.34924 16.2004 -9.19306
-6.75197 16.2506 -9.20486
-7.09649 16.2573 -9.20977
-5.67941 16.2106 -9.19321
-6.03438 16.2185 -9.195
-6.38843 16.2646 -9.20427
-4.97757 16.2089 -9.1959
-5.32731 16.2308 -9.19768
-4.25987 16.2501 -9.21083
-4.58246 16.2807 -9.21197
-3.59348 16.2148 -9.21662
-3.92879 16.2658 -9.21888
-2.84395 16.2399 -9.23901
-3.19788 16.2821 -9.23688
-2.06637 16.2166 -9.25948
-2.52715 16.2918 -9.2569
-1.67256 16.1851 -9.26859
-1.82248 16.2422 -9.27238
3.16098 16.2148 -8.75645
2.8881 16.2494 -8.74445
3.86909 16.2255 -8.80157
3.51434 16.2398 -8.781
4.56918 16.2191 -8.84683
4.18037 16.2252 -8.82171
5.30921 16.23 -8.89943
4.93919 16.2468 -8.87533
5.61589 16.2469 -8.92338
-26.9002 16.1446 -10.0331
-27.2471 16.1467 -10.0767
-26.1934 16.152 -9.94643
-26.5731 16.153 -9.99329
-26.8995 16.168 -10.0351
-25.4477 16.145 -9.85527
-25.809 16.152 -9.89962
-24.7679 16.1472 -9.77449
-25.1598 16.1522 -9.8215
-24.0713 16.1477 -9.69313
-24.4264 16.1482 -9.73449
-23.3659 16.1513 -9.61278
-23.7157 16.1521 -9.65267
-22.7884 16.1614 -9.54908
-23.0135 16.1644 -9.57447
-18.7597 16.1312 -9.95744
-18.9595 16.1913 -9.98854
-18.0075 16.1113 -9.87241
-18.3912 16.2146 -9.92903
-18.811 16.2704 -9.98325
-17.3455 16.1716 -9.81218
-17.7279 16.213 -9.85795
-18.053 16.2528 -9.89807
-16.6452 16.1871 -9.74472
-16.9765 16.2045 -9.78002
-17.3485 16.2162 -9.81915
-15.9001 16.1798 -9.6732
-16.2891 16.2167 -9.7152
-16.6437 16.2233 -9.75006
-15.2257 16.1908 -9.61477
-15.6073 16.2124 -9.65184
-15.9402 16.2519 -9.68801
-14.4902 16.197 -9.55421
-14.876 16.2123 -9.58845
-13.8122 16.1899 -9.5002
-14.2277 16.1971 -9.53335
-13.1069 16.2192 -9.45399
-13.5077 16.2356 -9.48512
-12.4539 16.2741 -9.41965
-12.7963 16.2483 -9.43773
-1.50527 16.2849 -9.2915
-1.75101 16.3251 -9.28869
-0.797767 16.2553 -9.31685
-1.00598 16.3194 -9.31794
-27.505 16.1489 -10.1093
-23.3539 16.1642 -10.5338
-23.5066 16.1688 -10.5552
-22.6577 16.1737 -10.4415
-22.9943 16.1976 -10.4895
-21.9184 16.178 -10.3452
-22.2716 16.2011 -10.3942
-21.2028 16.1719 -10.2532
-21.5987 16.2292 -10.311
-20.5402 16.1828 -10.1728
-20.9112 16.2244 -10.224
-19.8592 16.1836 -10.0912
-20.1469 16.2353 -10.1326
-19.2042 16.2222 -10.0206
-19.4946 16.2377 -10.0562
-15.8401 16.1522 -10.4494
-15.2451 16.1464 -10.3867
-15.5592 16.2167 -10.4322
-14.5041 16.1729 -10.3195
-14.8116 16.2213 -10.3582
-13.8033 16.2029 -10.2619
-14.1576 16.1811 -10.2891
-13.0316 16.191 -10.1953
-13.4884 16.2343 -10.2412
-12.3363 16.1926 -10.143
-12.7739 16.2307 -10.1831
-11.6641 16.1954 -10.0975
-12.056 16.2208 -10.1288
-10.9834 16.1984 -10.0565
-11.3824 16.2554 -10.0917
-10.2876 16.1947 -10.0183
-10.6253 16.2598 -10.0489
-9.15973 16.0974 -9.94901
-9.52737 16.2248 -9.98985
-9.92209 16.2771 -10.0176
-8.49281 16.1593 -9.93955
-8.86 16.2285 -9.96558
-9.21058 16.2648 -9.98541
-7.78322 16.2001 -9.93001
-8.17347 16.1976 -9.93886
-8.57758 16.291 -9.96933
-7.08265 16.2157 -9.92124
-7.44516 16.2198 -9.92777
-6.37733 16.1971 -9.9111
-6.73084 16.214 -9.91719
-5.63389 16.1844 -9.90802
-6.02594 16.2138 -9.91366
-5.02753 16.1909 -9.91371
-5.28949 16.2442 -9.92243
-4.22732 16.2137 -9.93065
-4.64799 16.268 -9.93461
-3.51752 16.3004 -9.96514
-3.88573 16.3111 -9.95821
-3.3205 16.2648 -9.96357
-2.02819 16.185 -9.9951
-1.57982 16.269 -10.0326
-1.71725 16.3049 -10.0332
-27.0902 16.164 -11.071
-26.1959 16.1269 -10.9332
-26.5075 16.1801 -10.9856
-26.8932 16.2062 -11.0462
-25.4782 16.1275 -10.8282
-25.8701 16.172 -10.8906
-24.7373 16.1342 -10.7226
-25.1228 16.159 -10.7807
-24.0599 16.1423 -10.6283
-24.3915 16.154 -10.6762
-23.7235 16.1768 -10.586
-20.279 16.1242 -10.9973
-19.2167 16.2105 -10.8664
-18.2724 16.2232 -10.7461
-17.3025 16.1336 -10.6109
-17.5949 16.216 -10.6609
-18.1088 16.241 -10.7285
-16.6414 16.1329 -10.5339
-16.9865 16.2016 -10.5863
-17.3347 16.2164 -10.6297
-15.9702 16.2073 -10.4737
-16.2998 16.1946 -10.5073
-16.6668 16.2799 -10.5639
-15.8422 16.2867 -10.4749
-12.9331 16.0886 -10.9249
-12.3914 16.1097 -10.8833
-12.7327 16.1206 -10.9147
-11.3177 16.0891 -10.7964
-11.615 16.0979 -10.8199
-12.0594 16.129 -10.8609
-10.61 16.1041 -10.754
-10.9639 16.1142 -10.7788
-11.3268 16.1272 -10.8061
-9.90285 16.1208 -10.7186
-10.2573 16.1267 -10.7392
-10.6101 16.1369 -10.7619
-9.20765 16.1056 -10.6825
-9.52271 16.1136 -10.6985
-9.90708 16.1599 -10.7282
-8.48865 16.1193 -10.6591
-8.87051 16.1312 -10.6755
-7.78202 16.1206 -10.6399
-8.13614 16.142 -10.6543
-7.07252 16.1211 -10.6273
-7.42694 16.1243 -10.6337
-6.32968 16.1159 -10.62
-6.72022 16.1367 -10.6274
-5.63108 16.118 -10.6216
-6.0113 16.1188 -10.6204
-4.92827 16.1251 -10.6311
-5.28577 16.1308 -10.6276
-4.21309 16.1433 -10.6501
-4.61145 16.134 -10.6388
-3.53495 16.1326 -10.6676
-3.86044 16.1596 -10.6635
-2.4584 16.0853 -10.7001
-2.7991 16.1489 -10.6999
-3.18176 16.1533 -10.6851
-1.76428 16.1136 -10.7429
-2.13678 16.1371 -10.7286
-2.47445 16.1701 -10.7195
-1.10496 16.0887 -10.7769
-1.43143 16.1411 -10.769
-1.76527 16.1539 -10.7524
-27.321 16.1856 -11.1083
-20.5792 16.1668 -11.0472
-20.7949 16.1607 -11.0771
-17.3228 16.0805 -11.4234
-17.6299 16.0881 -11.4674
-16.617 16.0936 -11.3322
-16.9654 16.0971 -11.3788
-15.9378 16.0972 -11.2472
-16.2666 16.0959 -11.2878
-15.1958 16.0933 -11.158
-15.5573 16.0956 -11.2008
-14.5074 16.0975 -11.0823
-14.8513 16.1038 -11.1213
-13.756 16.1013 -11.0055
-14.1493 16.0967 -11.0442
-13.1306 16.1048 -10.9467
-13.4371 16.1139 -10.9774
-12.8132 16.1431 -10.927
-1.05692 16.136 -10.791
-1.23305 16.1906 -10.7925
-0.350951 16.1536 -10.8437
-0.685371 16.1714 -10.8242
-1.09406 16.2128 -10.8065
0.360243 16.1364 -10.8945
-0.0143583 16.177 -10.8744
-0.352932 16.196 -10.8533
1.11342 16.1191 -10.9548
0.730647 16.1904 -10.9376
0.358961 16.2403 -10.918
1.77772 16.1453 -11.0223
1.42636 16.1773 -10.9964
1.08255 16.2853 -10.9893
2.49688 16.1489 -11.0949
2.10082 16.1562 -11.0563
2.65799 16.196 -11.1218
-24.7462 16.0769 -11.681
-25.0278 16.1226 -11.7349
-24.0097 16.1266 -11.5669
-24.4105 16.0984 -11.6284
-20.1491 16.0415 -11.8375
-20.5058 16.0387 -11.8951
-19.4418 16.0616 -11.7295
-19.819 16.0733 -11.7912
-18.7368 16.0772 -11.6251
-19.1136 16.0874 -11.6843
-18.0013 16.0752 -11.5171
-18.4144 16.1004 -11.5823
-17.8282 16.0977 -11.4973
-27.2999 -6.88923 -3.60308
-27.2655 -6.62448 -3.60571
-27.2649 -6.40742 -3.60461
-27.3417 -1.47211 -3.4923
-27.3525 -1.34496 -3.48651
-27.3364 -1.34478 -3.48827
-27.3457 -1.01754 -3.47483
-27.2605 -0.536709 -3.46497
-27.239 -0.354457 -3.4596
-27.2022 0.116629 -3.4429
-27.2156 0.428907 -3.42704
-27.2103 0.782674 -3.41054
-27.1996 1.13675 -3.39395
-27.1949 1.50735 -3.37503
-27.2078 1.84301 -3.35554
-27.2061 2.19675 -3.33581
-27.2522 2.57762 -3.30894
-27.2534 2.87229 -3.29113
-27.2391 3.20596 -3.27221
-27.128 3.29164 -3.2784
-27.1336 3.31836 -3.27611
-27.2258 -6.49423 -3.60937
-27.2306 -6.29263 -3.6076
-27.2189 -5.93846 -3.60602
-27.2063 -5.5876 -3.60402
-27.1889 -5.22912 -3.60147
-27.2086 -4.87806 -3.59439
-27.1784 -4.87476 -3.59767
-27.1836 -4.52195 -3.59121
-27.1837 -4.16569 -3.58468
-27.1825 -3.81318 -3.57742
-27.1799 -3.45983 -3.5697
-27.1934 -3.10715 -3.55929
-27.2012 -2.75409 -3.54891
-27.2172 -2.42937 -3.5376
-27.2135 -2.04572 -3.52605
-27.2281 -1.67572 -3.51195
-27.1782 -0.476528 -3.47145
-27.1661 -0.390381 -3.46913
-27.2266 7.23584 -3.79265
-27.2127 7.5468 -3.77343
-27.2181 7.81827 -3.7553
-27.3825 -6.88082 -4.31859
-27.3366 -6.60625 -4.31941
-27.3431 -6.3093 -4.31575
-27.3414 -5.92784 -4.31129
-27.3393 -5.57305 -4.30662
-27.3298 -5.17781 -4.30132
-27.3358 -4.86608 -4.29567
-27.3366 -4.51254 -4.28918
-27.3411 -4.15854 -4.28191
-27.3451 -3.80476 -4.27408
-27.3431 -3.45083 -4.26623
-27.3357 -3.09742 -4.25816
-27.3524 -2.74534 -4.24789
-27.3181 -2.37542 -4.2403
-27.346 -2.03788 -4.22854
-27.3438 -1.67944 -4.21778
-27.3757 -1.3337 -4.20444
-27.3743 -0.976356 -4.19259
-27.3783 -0.623558 -4.18009
-27.3591 -0.62065 -4.18142
-27.3381 -0.235473 -4.16892
-27.326 0.123189 -4.15628
-27.3347 0.43908 -4.14317
-27.3323 0.793692 -4.12899
-27.3376 1.09916 -4.11573
-27.314 1.50111 -4.10004
-27.3283 1.85398 -4.08317
-27.3187 2.20764 -4.06751
-27.3214 2.56094 -4.05051
-27.3116 2.90435 -4.03441
-27.3245 3.26925 -4.01517
-27.321 3.62238 -3.9972
-27.3314 3.94514 -3.97946
-27.242 4.36873 -3.96271
-27.2332 4.68517 -3.94579
-27.2079 4.6901 -3.94726
-27.203 5.04115 -3.92764
-27.1837 5.3944 -3.90854
-27.2008 5.74818 -3.88646
-27.2 6.10145 -3.86529
-27.2273 6.45418 -3.84182
-27.2225 6.80782 -3.82011
-27.2224 7.00912 -3.80739
-27.3934 -6.80074 -5.03792
-27.3854 -6.62157 -5.0356
-27.3877 -6.30332 -5.03061
-27.3821 -5.91328 -5.02454
-27.3807 -5.55055 -5.01835
-27.3804 -5.20614 -5.01215
-27.3883 -4.88037 -5.00567
-27.3813 -4.49798 -4.99837
-27.3831 -4.14423 -4.99096
-27.3784 -3.74941 -4.98256
-27.3839 -3.43737 -4.97527
-27.3814 -3.0921 -4.96725
-27.3799 -2.72949 -4.95848
-27.3768 -2.33968 -4.94868
-27.3785 -2.02209 -4.94029
-27.3881 -1.71242 -4.9315
-27.4334 -1.31809 -4.91868
-27.4252 -0.915197 -4.90731
-27.428 -0.648294 -4.89927
-27.3702 -0.252498 -4.88939
-27.3888 0.0997168 -4.87757
-27.3676 0.101061 -4.87837
-27.3693 0.454211 -4.8668
-27.3657 0.806549 -4.85524
-27.3638 1.16169 -4.84315
-27.3601 1.51488 -4.83096
-27.3612 1.80413 -4.82054
-27.3602 2.22327 -4.80527
-27.3604 2.57699 -4.79199
-27.3569 2.93079 -4.77859
-27.362 3.25538 -4.76573
-27.3537 3.63768 -4.75082
-27.354 3.99193 -4.73643
-27.35 4.3722 -4.72084
-27.3559 4.6978 -4.70692
-27.3538 5.04198 -4.69225
-27.3542 5.40476 -4.67647
-27.3501 5.75956 -4.66092
-27.3605 6.11195 -4.64475
-27.3448 6.45286 -4.62974
-27.3378 6.8166 -4.61321
-27.3365 7.1586 -4.59719
-27.3467 7.52717 -4.57938
-27.3269 7.52735 -4.58004
-27.3373 7.86333 -4.5635
-27.3675 8.23522 -4.54442
-27.3341 8.22758 -4.5459
-27.3562 8.26029 -4.54357
-27.433 -6.82723 -5.75724
-27.4223 -6.60594 -5.75291
-27.4212 -6.25285 -5.74581
-27.4135 -5.89935 -5.73866
-27.422 -5.58918 -5.7322
-27.4211 -5.19171 -5.72389
-27.4199 -4.83807 -5.71636
-27.4136 -4.44781 -5.70798
-27.4181 -4.13006 -5.70099
-27.4133 -3.77679 -5.69318
-27.4144 -3.42269 -5.68522
-27.414 -3.06826 -5.67714
-27.4126 -2.7149 -5.66899
-27.4138 -2.362 -5.66072
-27.4179 -2.04431 -5.65319
-27.4123 -1.6538 -5.64384
-27.4149 -1.3009 -5.63526
-27.4159 -0.899005 -5.62536
-27.4186 -0.594378 -5.61777
-27.4107 -0.239292 -5.60885
-27.4104 0.113068 -5.59989
-27.408 0.490471 -5.59017
-27.4168 0.820763 -5.58153
-27.4046 1.15427 -5.5728
-27.403 1.53031 -5.56282
-27.4034 1.88407 -5.55329
-27.3927 2.23705 -5.54376
-27.4047 2.56493 -5.53471
-27.4015 2.94551 -5.5242
-27.3994 3.29796 -5.51435
-27.4012 3.6527 -5.50434
-27.3958 4.00611 -5.4943
-27.3947 4.3591 -5.48417
-27.392 4.71251 -5.47394
-27.3858 5.10357 -5.46254
-27.3857 5.42148 -5.45318
-27.3873 5.77477 -5.44269
-27.3914 6.09171 -5.4332
-27.3894 6.48295 -5.42143
-27.3892 6.85249 -5.41022
-27.3847 7.20392 -5.39949
-27.3959 7.54339 -5.38902
-27.3858 7.89655 -5.3781
-27.3863 8.24981 -5.3671
-27.3874 8.32242 -5.36483
-27.4973 -13.4855 -6.66381
-27.5881 -13.3406 -6.662
-27.3951 -13.4014 -6.65843
-27.5568 -12.9873 -6.65062
-27.5106 -12.645 -6.63918
-27.551 -12.4421 -6.63436
-27.4661 -6.8323 -6.47876
-27.4642 -6.59372 -6.47273
-27.4435 -6.58941 -6.47201
-27.4541 -6.25679 -6.46409
-27.4481 -5.88405 -6.45477
-27.453 -5.53117 -6.44639
-27.4453 -5.1405 -6.43683
-27.4547 -4.8237 -6.42965
-27.4496 -4.47052 -6.42126
-27.4505 -4.11694 -6.41317
-27.4492 -3.76096 -6.40505
-27.4462 -3.40842 -6.39708
-27.4474 -3.05458 -6.3893
-27.4575 -2.72848 -6.38249
-27.4524 -2.3477 -6.37416
-27.4504 -1.99395 -6.36661
-27.4431 -1.59849 -6.35815
-27.444 -1.31484 -6.35234
-27.4402 -0.932461 -6.34448
-27.4484 -0.579107 -6.33765
-27.4437 -0.188302 -6.32983
-27.4438 0.128885 -6.32368
-27.4448 0.48276 -6.31696
-27.4456 0.832401 -6.31039
-27.4371 1.19097 -6.30351
-27.4436 1.5452 -6.29721
-27.4364 1.89908 -6.29065
-27.4572 2.2511 -6.28501
-27.4381 2.25177 -6.28444
-27.437 2.60539 -6.27826
-27.437 2.95999 -6.27215
-27.4313 3.31463 -6.266
-27.4317 3.66724 -6.26013
-27.4322 3.9847 -6.25494
-27.4278 4.37636 -6.24847
-27.4266 4.73819 -6.24269
-27.4224 5.08311 -6.23716
-27.428 5.39598 -6.23248
-27.4276 5.79057 -6.22647
-27.4274 6.14431 -6.22116
-27.4232 6.51102 -6.21564
-27.4261 6.84918 -6.2108
-27.4246 7.1963 -6.20579
-27.4268 7.5593 -6.20072
-27.4193 7.95028 -6.19508
-27.4211 8.26711 -6.19078
-27.4193 8.51433 -6.18739
-27.5555 -12.9155 -7.43633
-27.5202 -12.2612 -7.40576
-27.6629 -11.8428 -7.39669
-27.4216 -11.9922 -7.38831
-27.4965 -6.83097 -7.20391
-27.495 -6.58061 -7.19622
-27.493 -6.22465 -7.18565
-27.4909 -5.87291 -7.17541
-27.4861 -5.51612 -7.16526
-27.5034 -5.16142 -7.15682
-27.4822 -5.16249 -7.15549
-27.4875 -4.8315 -7.14729
-27.4853 -4.45415 -7.13766
-27.4857 -4.08743 -7.1289
-27.4781 -3.74751 -7.12049
-27.4849 -3.44229 -7.11414
-27.4829 -3.04037 -7.10538
-27.4839 -2.68622 -7.09822
-27.4779 -2.30366 -7.09034
-27.4852 -1.9798 -7.08479
-27.4808 -1.62522 -7.0782
-27.4805 -1.27238 -7.07224
-27.481 -0.917672 -7.0666
-27.4811 -0.563586 -7.06126
-27.4808 -0.210037 -7.05623
-27.4832 0.107715 -7.05212
-27.478 0.497599 -7.04692
-27.4818 0.851453 -7.04302
-27.4763 1.22413 -7.03869
-27.4857 1.5566 -7.03596
-27.4795 1.91282 -7.03236
-27.4877 2.26515 -7.02992
-27.4752 2.64751 -7.02631
-27.4806 2.97313 -7.02444
-27.4651 2.97502 -7.02347
-27.4735 3.30241 -7.02208
-27.4692 3.68341 -7.01981
-27.4704 4.03678 -7.01837
-27.4584 4.39266 -7.01631
-27.4676 4.71833 -7.01595
-27.4651 5.09781 -7.01494
-27.4642 5.45237 -7.01437
-27.4639 5.80706 -7.01406
-27.467 6.16946 -7.01422
-27.465 6.51398 -7.01429
-27.4671 6.81496 -7.01477
-27.4627 7.22283 -7.01525
-27.463 7.57695 -7.01614
-27.4583 7.93027 -7.01697
-27.4632 8.2544 -7.01843
-27.4578 8.63832 -7.01977
-27.4576 8.99145 -7.02145
-27.4564 9.39357 -7.0236
-27.4617 9.699 -7.0257
-27.4561 10.0392 -7.02762
-27.4591 10.4251 -7.03046
-27.4533 10.7322 -7.03248
-27.4572 11.1163 -7.03573
-27.4394 11.1187 -7.03478
-27.4559 11.4705 -7.0387
-27.4541 11.8246 -7.04175
-27.4516 12.1773 -7.04497
-27.4477 12.5336 -7.04826
-27.4508 12.899 -7.05221
-27.4462 13.2399 -7.05563
-27.4463 13.5945 -7.0596
-27.4442 13.948 -7.06357
-27.4431 14.3127 -7.06789
-27.4402 14.6581 -7.07201
-27.4424 14.9389 -7.07569
-27.5404 -6.7417 -7.93276
-27.5354 -6.56423 -7.92601
-27.5267 -6.1672 -7.91165
-27.5355 -5.85651 -7.90235
-27.5326 -5.46504 -7.88991
-27.5411 -5.1574 -7.88158
-27.5361 -4.84397 -7.87228
-27.5335 -4.44291 -7.86117
-27.5133 -4.44034 -7.8591
-27.5279 -4.08803 -7.85173
-27.5488 -3.73655 -7.84542
-27.5209 -3.73284 -7.84256
-27.5255 -3.38015 -7.83525
-27.5112 -3.06072 -7.82714
-27.5259 -2.67276 -7.82119
-27.5242 -2.31911 -7.81473
-27.5362 -1.98831 -7.81059
-27.5269 -1.63805 -7.80447
-27.5266 -1.25736 -7.79944
-27.518 -0.902216 -7.79442
-27.5313 -0.550263 -7.79215
-27.5325 -0.196132 -7.78916
-27.5245 0.157717 -7.78579
-27.526 0.512011 -7.78386
-27.5299 0.866658 -7.78266
-27.5234 1.21883 -7.78097
-27.5239 1.57319 -7.78042
-27.519 1.96337 -7.77992
-27.5238 2.28134 -7.78071
-27.5204 2.66129 -7.78137
-27.5316 2.98852 -7.78364
-27.5191 3.38624 -7.78457
-27.5267 3.69706 -7.78722
-27.5144 4.07054 -7.78897
-27.5259 4.40393 -7.79295
-27.5108 4.40645 -7.79157
-27.5205 4.7408 -7.79588
-27.5107 5.1148 -7.79913
-27.5165 5.46786 -7.80412
-27.5105 5.78665 -7.80785
-27.5187 6.14964 -7.81395
-27.5056 6.50853 -7.81839
-27.5153 6.57434 -7.82034
-27.5217 6.84874 -7.82561
-27.5133 7.27406 -7.83249
-27.5199 7.59223 -7.83917
-27.5158 7.94633 -7.84589
-27.5242 8.27209 -7.85349
-27.5158 8.65426 -7.86115
-27.5171 8.97422 -7.86862
-27.5141 9.40335 -7.87862
-27.5192 9.71597 -7.88684
-27.5166 10.0614 -7.89551
-27.5119 10.4249 -7.90475
-27.5112 10.8251 -7.91572
-27.5141 11.1326 -7.92465
-27.5135 11.4878 -7.93496
-27.5096 11.8402 -7.94513
-27.5106 12.1953 -7.95613
-27.5107 12.5508 -7.96726
-27.5098 12.9135 -7.97887
-27.5245 13.2587 -7.99134
-27.5073 13.256 -7.98989
-27.5075 13.6124 -8.00188
-27.5075 13.9712 -8.01412
-27.5041 14.3347 -8.02656
-27.5 14.6666 -8.03801
-27.5102 14.9792 -8.05009
-27.6463 -6.51471 -9.41553
-27.6474 -6.19439 -9.40173
-27.6582 -5.85311 -9.38959
-27.6332 -5.43891 -9.36946
-27.6497 -5.1557 -9.36219
-27.6263 -4.76579 -9.34533
-27.6463 -4.41475 -9.33811
-27.6222 -4.02385 -9.32335
-27.657 -3.70791 -9.32148
-27.6237 -3.3576 -9.30813
-27.6443 -2.99886 -9.30462
-27.6326 -2.64437 -9.29685
-27.659 -2.29112 -9.29634
-27.6327 -1.93616 -9.28799
-27.6458 -1.58519 -9.28714
-27.6012 -1.5825 -9.27952
-27.6359 -1.20821 -9.28343
-27.6706 -0.870636 -9.28816
-27.6169 -0.873366 -9.27906
-27.6347 -0.525841 -9.28202
-27.679 -0.168899 -9.29014
-27.6351 -0.16519 -9.28275
-27.6269 0.186802 -9.28316
-27.6126 0.542048 -9.28329
-27.6395 0.893915 -9.2914
-27.6148 1.28465 -9.29214
-27.641 1.57994 -9.30097
-27.6146 1.95804 -9.30312
-27.6349 2.3187 -9.31369
-27.6239 2.6415 -9.31907
-27.6477 3.01884 -9.33227
-27.6116 3.40099 -9.33677
-27.6285 3.72643 -9.34908
-27.6252 4.08277 -9.35986
-27.6255 4.34958 -9.36884
-27.675 4.24665 -9.37325
-27.6425 4.43798 -9.37466
-27.6271 4.78971 -9.3849
-27.6588 5.14263 -9.40339
-27.6176 5.49855 -9.41132
-27.6559 5.86348 -9.43274
-27.6302 6.17808 -9.44277
-27.6574 6.56292 -9.46476
-27.6347 6.92027 -9.47864
-27.6411 7.25643 -9.49644
-27.6065 7.27045 -9.49191
-27.6295 7.58465 -9.51188
-27.6968 7.94917 -9.54158
-27.6216 7.97815 -9.53185
-27.6409 8.36169 -9.55628
-27.6915 8.68765 -9.58252
-27.6109 8.65269 -9.56852
-27.6367 9.0474 -9.59581
-27.7494 9.43028 -9.63563
-27.615 9.39219 -9.61363
-27.6517 9.77143 -9.64281
-27.633 10.1034 -9.66141
-27.657 10.4809 -9.68976
-27.6166 10.842 -9.70835
-27.6579 10.93 -9.72022
-27.6409 11.1517 -9.73317
-27.6358 11.5174 -9.75813
-27.6768 11.8847 -9.79023
-27.6275 12.231 -9.80871
-27.6657 12.6211 -9.84302
-27.6302 12.98 -9.86544
-27.6728 13.295 -9.8955
-27.6343 13.6275 -9.91635
-27.6779 14.0059 -9.95223
-27.64 14.1988 -9.96272
14.3155 -5.21421 -5.20059
14.3242 -4.93246 -5.19433
14.3266 -4.56914 -5.18643
14.3388 -4.22499 -5.17855
14.2505 -3.91005 -5.1742
14.2588 -5.2117 -5.9484
14.26 -4.91819 -5.94147
14.2572 -4.56576 -5.93326
14.2688 -4.17478 -5.92431
14.2564 -3.85792 -5.91705
14.2225 -3.50584 -5.90895
14.2036 -3.15274 -5.90104
14.1911 -2.80092 -5.89326
14.1831 -2.46449 -5.88597
14.1858 -2.03458 -5.87683
14.1734 -1.7671 -5.87116
14.161 -1.3368 -5.86217
14.1661 -1.08452 -5.85705
14.1784 -0.67638 -5.84888
14.1795 -0.320623 -5.84183
14.2035 0.0317966 -5.83504
14.2151 0.385116 -5.82828
14.2153 0.739424 -5.82154
14.2016 1.08259 -5.81503
14.2114 1.43802 -5.80851
14.2091 1.79958 -5.8019
14.221 2.18069 -5.79513
14.2057 2.50753 -5.78927
14.2133 2.86224 -5.78313
14.1975 3.17658 -5.77764
14.2247 3.58426 -5.77086
14.2097 3.92224 -5.76515
14.2365 3.92306 -5.76525
14.221 4.22952 -5.76014
14.2639 -5.24689 -6.69609
14.2256 -4.90512 -6.68565
14.2459 -4.90442 -6.68645
14.2282 -4.55047 -6.67689
14.2106 -4.19934 -6.66763
14.2307 -4.19603 -6.66836
14.2261 -3.84322 -6.65998
14.2261 -3.48665 -6.65191
14.2264 -3.12095 -6.64407
14.2339 -2.78096 -6.63728
14.2292 -2.47602 -6.63104
14.2364 -2.07295 -6.62362
14.2047 -1.66798 -6.61505
14.2476 -1.33562 -6.61103
14.1641 -1.03696 -6.60282
14.2171 -0.65609 -6.59897
14.1843 -0.341967 -6.59305
14.2373 -0.101454 -6.59173
14.1922 0.402726 -6.58329
14.2196 0.821775 -6.57929
14.2087 1.04513 -6.5763
14.2412 1.49921 -6.57275
14.2427 1.81963 -6.56965
14.2456 2.17262 -6.56661
14.2341 2.48854 -6.56352
14.2459 2.88035 -6.56107
14.2418 3.22893 -6.55854
14.2487 3.58787 -6.55669
14.2357 3.94051 -6.55433
14.2566 3.94277 -6.5551
14.2481 4.27437 -6.55332
14.2531 4.65016 -6.55204
14.2512 4.98624 -6.55096
14.2577 5.35836 -6.55028
14.2512 5.66361 -6.54953
14.2895 6.09508 -6.55042
14.2015 -5.21157 -7.4394
14.1804 -4.8895 -7.42867
14.1945 -4.53567 -7.42026
14.1928 -4.1829 -7.41109
14.1979 -3.81 -7.40259
14.1861 -3.47529 -7.39411
14.2043 -3.4735 -7.39544
14.1892 -3.12098 -7.38693
14.1954 -2.76559 -7.38036
14.1966 -2.3987 -7.37386
14.2126 -2.05773 -7.36931
14.2008 -1.73129 -7.36346
14.2132 -1.35005 -7.35905
14.2128 -0.98711 -7.35455
14.2125 -0.613873 -7.35043
14.2036 -0.288366 -7.3467
14.185 0.0655023 -7.34242
14.1988 0.379632 -7.3413
14.2175 0.827199 -7.34027
14.2097 1.10378 -7.33859
14.2116 1.48012 -7.33772
14.2029 1.80504 -7.33661
14.2142 2.22444 -7.33746
14.2112 2.54148 -7.33764
14.2178 2.8967 -7.33907
14.2014 3.24834 -7.33921
14.2055 3.60328 -7.34136
14.1925 3.91702 -7.34237
14.2539 3.95651 -7.34694
14.2232 4.31214 -7.34752
14.1996 4.66547 -7.34892
14.2306 4.66797 -7.35108
14.2061 4.79677 -7.35063
14.2166 5.04232 -7.35389
14.1821 5.36593 -7.35508
14.2256 5.37626 -7.35817
14.222 5.73459 -7.36235
14.241 6.08374 -7.36824
14.2333 6.35207 -7.37156
14.1442 -5.22491 -8.18427
14.1361 -4.87249 -8.1725
14.1398 -4.51859 -8.16278
14.147 -4.16718 -8.15414
14.1515 -3.79201 -8.1455
14.1407 -3.46156 -8.13678
14.1484 -3.1061 -8.1304
14.1397 -2.75466 -8.12282
14.1383 -2.42658 -8.11734
14.1322 -2.04607 -8.11108
14.1561 -2.0446 -8.11368
14.141 -1.69097 -8.10771
14.1549 -1.33416 -8.10543
14.157 -0.969485 -8.10275
14.1622 -0.627723 -8.10109
14.1365 -0.274375 -8.09682
14.05 0.0701754 -8.08652
14.0992 0.0882779 -8.09182
14.1417 0.395488 -8.09637
14.1537 0.823714 -8.09828
14.1541 1.14087 -8.09947
14.1533 1.49465 -8.10125
14.1481 1.80693 -8.10294
14.1568 2.23719 -8.10777
14.1511 2.53235 -8.11039
14.1574 2.91129 -8.11587
14.1445 3.26393 -8.11962
14.1455 3.61801 -8.12551
14.1459 3.93869 -8.13126
14.165 4.35411 -8.14147
14.1478 4.67961 -8.14667
14.1532 5.00559 -8.15474
14.145 5.35435 -8.16238
14.1669 5.7705 -8.17558
14.157 6.09505 -8.18359
14.1837 6.0994 -8.18637
14.1635 6.45134 -8.19474
14.1352 6.80153 -8.20274
14.1757 6.81325 -8.20707
14.1742 7.14672 -8.21774
14.1805 7.55039 -8.23194
14.1716 7.86879 -8.24239
14.1953 8.20915 -8.25705
14.1045 -5.40966 -8.93966
14.1194 -5.25786 -8.9365
14.099 -4.86014 -8.9202
14.1008 -4.4659 -8.90847
14.093 -4.15296 -8.89863
14.0928 -3.79999 -8.88968
14.09 -3.48255 -8.88199
14.0991 -3.05563 -8.87485
14.0965 -2.73772 -8.8689
14.1037 -2.38378 -8.86483
14.1038 -2.03211 -8.86049
14.1027 -1.67555 -8.85708
14.0944 -1.32324 -8.85332
14.0982 -0.941982 -8.85242
14.0898 -0.615774 -8.85058
14.1076 -0.613545 -8.85315
14.0819 -0.275902 -8.84985
14.0106 0.0501615 -8.84057
14.0823 0.0834369 -8.85102
14.0996 0.424584 -8.8556
14.1166 0.802515 -8.86113
14.0996 1.15495 -8.86268
14.1056 1.50912 -8.86821
14.104 1.86253 -8.87365
14.1084 2.25372 -8.88141
14.1048 2.57184 -8.88755
14.0973 2.88825 -8.89371
14.1078 2.97707 -8.89731
14.096 3.23765 -8.9023
14.1013 3.63361 -8.9139
14.1008 3.98871 -8.92443
14.1093 4.36993 -8.93783
14.1009 4.71143 -8.94841
14.1048 5.00465 -8.9596
14.1094 5.40363 -8.97544
14.1096 5.80708 -8.9919
14.1001 6.11265 -9.00362
14.106 6.46274 -9.02003
14.0989 6.78543 -9.03398
14.1059 7.17634 -9.05384
14.0991 7.5276 -9.07052
14.1096 7.87132 -9.0898
14.1493 8.20921 -9.11288
14.0843 -5.42654 -9.69832
14.0805 -5.19756 -9.68887
14.061 -4.84 -9.67259
14.0684 -4.49097 -9.66257
14.0778 -4.13838 -9.65397
14.0841 -3.74503 -9.64498
14.079 -3.42945 -9.6369
14.0782 -3.07563 -9.62992
14.0693 -2.7433 -9.62282
14.0695 -2.35762 -9.61791
14.0612 -2.04578 -9.61326
14.0825 -1.6605 -9.61465
14.0673 -1.30758 -9.61063
14.0808 -0.952742 -9.61317
14.0697 -0.600398 -9.61209
14.063 -0.217695 -9.61346
13.9987 0.0447284 -9.60426
14.0744 0.463357 -9.62306
14.0839 0.819717 -9.63017
14.0838 1.15077 -9.63638
14.0927 1.52754 -9.64596
14.0782 1.87982 -9.65218
14.0814 2.23385 -9.66242
14.07 2.55884 -9.67038
14.0801 2.97369 -9.6859
14.0758 3.2389 -9.69479
14.0831 3.65131 -9.71199
14.0696 4.00395 -9.72442
14.0821 4.38973 -9.74372
14.0795 4.70439 -9.75811
14.0923 5.06924 -9.77842
14.0783 5.42168 -9.79448
14.0798 5.77494 -9.81413
14.0677 6.01461 -9.82573
14.0791 -5.42516 -10.468
14.0434 -5.18287 -10.4502
14.0285 -4.87332 -10.4351
14.0433 -4.43958 -10.4233
14.0353 -4.12227 -10.4119
14.0383 -3.76791 -10.4031
14.0243 -3.41562 -10.392
14.0351 -3.06127 -10.3877
14.0381 -2.70708 -10.383
14.0439 -2.35266 -10.3803
14.03 -2.00024 -10.3746
14.0369 -1.64556 -10.3749
14.0429 -1.29214 -10.3763
14.056 -0.911832 -10.3808
14.0281 -0.588532 -10.3773
14.0249 -0.237309 -10.3808
13.9907 0.0799112 -10.3782
14.0434 0.502485 -10.3976
14.0371 0.832535 -10.4037
14.0728 0.835749 -10.4113
14.0472 1.18704 -10.4153
14.0206 1.53998 -10.4201
14.0511 1.53674 -10.4264
14.029 1.62958 -10.4248
14.1035 5.96925 -9.829
14.0734 6.13044 -9.83342
14.0969 6.51218 -9.86015
14.0802 6.83911 -9.87773
14.0854 7.19425 -9.90151
14.0689 7.54414 -9.92216
14.0928 7.94547 -9.95381
14.158 8.23575 -9.98461
14.0836 1.45776 -10.4308
14.0701 1.54875 -10.4308
14.0435 1.91195 -10.4376
13.9954 2.25048 -10.4399
14.0722 2.25251 -10.4561
14.0488 2.60414 -10.4656
14.0687 2.98181 -10.4862
14.0389 3.28229 -10.4943
14.0596 3.70313 -10.5198
14.0423 3.98558 -10.5315
14.0646 4.3913 -10.5591
14.0408 4.6954 -10.5726
14.0485 5.08523 -10.5987
14.0365 5.4542 -10.6209
14.0509 5.79065 -10.6471
14.0507 6.14739 -10.6729
14.0505 6.52068 -10.701
14.0324 6.82489 -10.7212
14.0647 7.21849 -10.7593
14.0151 7.55875 -10.7782
13.9957 -5.41692 -11.229
13.9505 -5.1715 -11.2065
13.9754 -5.16914 -11.2127
13.9572 -4.83359 -11.1945
13.9593 -4.46097 -11.1812
13.9556 -4.10883 -11.1693
13.9706 -3.75201 -11.1631
13.9553 -3.40085 -11.1513
13.9608 -3.04698 -11.146
13.9545 -2.69427 -11.1396
13.9716 -2.31051 -11.1404
13.9646 -1.98551 -11.1371
13.9698 -1.63227 -11.1382
13.9681 -1.31401 -11.139
13.9672 -0.923152 -11.142
13.958 -0.569523 -11.1442
13.9468 -0.254804 -11.1468
13.9471 0.119984 -11.1548
13.9564 0.492375 -11.1668
13.9504 0.816618 -11.1749
13.9743 1.22695 -11.1951
13.9561 1.55535 -11.2031
13.9676 1.90151 -11.2209
13.9421 2.26189 -11.2313
13.9614 2.61762 -11.2543
13.9481 2.97103 -11.2702
13.9625 3.31558 -11.294
13.9459 3.67981 -11.3127
13.9698 3.68229 -11.3186
13.9539 4.0339 -11.3383
13.9604 4.37812 -11.3638
13.946 4.42165 -11.3635
14.0648 7.62609 -10.7934
14.0588 7.9156 -10.8173
14.0115 8.27411 -10.8402
14.0602 8.62289 -10.8813
14.0091 8.97977 -10.9052
14.0706 9.35049 -10.9524
14.0069 9.73774 -10.979
14.0877 9.70473 -10.9904
14.0592 10.0848 -11.0238
14.0451 10.3999 -11.0538
14.0521 10.7941 -11.0968
14.0766 11.1368 -11.1381
14.0384 11.4556 -11.1665
13.9883 4.331 -11.367
13.9724 4.40202 -11.3683
13.9619 4.75871 -11.3924
13.9743 5.1001 -11.4216
13.9571 5.44826 -11.4458
13.9644 5.8077 -11.4778
13.9571 6.1664 -11.5077
13.9563 6.51772 -11.5395
13.9619 6.87173 -11.5743
13.9605 7.21877 -11.6079
13.9481 7.57988 -11.6416
13.9533 7.9448 -11.6807
13.9481 8.25433 -11.7127
13.9506 8.63842 -11.7554
14.0901 11.7086 -11.2037
14.0561 11.8126 -11.2095
14.038 12.1931 -11.2498
14.0432 12.5837 -11.2961
14.0318 12.8528 -11.326
14.0517 13.2389 -11.3756
14.0376 13.5804 -11.4148
14.0407 13.9389 -11.4596
14.0225 14.2963 -11.5014
14.0458 14.6533 -11.5506
14.0053 14.9777 -11.5858
14.0357 15.2054 -11.6202
13.9747 8.76844 -11.7752
13.9493 9.00028 -11.7961
13.9534 9.37562 -11.8405
13.9378 9.70857 -11.8766
13.9438 10.0934 -11.9247
13.9382 10.4182 -11.9638
13.9443 10.8282 -12.0171
13.9317 11.1275 -12.0532
13.9398 11.4882 -12.1024
13.9181 11.8383 -12.1449
13.9246 12.0496 -12.175
14.0329 15.4225 -11.6482
14.0176 15.7123 -11.6841
14.0521 16.1285 -11.7451
14.0046 16.4573 -11.7822
14.0299 16.8146 -11.8349
13.9984 17.1541 -11.877
14.0164 17.5643 -11.937
13.9942 17.8735 -11.9772
14.0271 18.2104 -12.03
13.9331 12.3076 -12.2122
13.9071 12.5827 -12.2453
13.9367 12.9034 -12.2965
13.9241 13.2562 -12.3445
13.954 13.2617 -12.3511
13.9294 13.5831 -12.3931
13.9088 13.9674 -12.4457
13.9372 13.971 -12.4517
13.9184 14.3176 -12.5
13.9267 14.6817 -12.5566
13.9216 14.9669 -12.5994
14.0015 18.6142 -12.0842
14.0103 18.9015 -12.1271
13.9585 19.1905 -12.1618
13.9984 19.5258 -12.2168
13.9254 15.2126 -12.6381
13.9344 15.3879 -12.6671
13.914 15.6961 -12.7118
13.9054 16.441 -12.8292
13.9153 16.8042 -12.8899
13.9114 17.1955 -12.9535
13.9176 17.5199 -13.0084
13.9 17.7688 -13.0469
13.8986 17.9789 -13.082
13.9036 18.2512 -13.1289
13.8859 18.5649 -13.1794
13.8902 18.9353 -13.2438
13.8896 19.33 -13.3121
13.8915 19.6389 -13.3665
13.8718 19.8638 -13.4027
-21.263 18.2948 -1.98634
-21.1356 18.339 -1.98769
-20.7129 18.3231 -2.00717
-20.2598 18.2801 -2.02997
-19.9916 18.3162 -2.03716
-19.657 18.276 -2.05403
-19.1049 18.2558 -2.07655
-18.914 18.26 -2.08294
-18.4649 18.2299 -2.10138
-17.9965 18.2113 -2.11858
-17.7495 18.2163 -2.12577
-17.3805 18.2061 -2.13776
-16.8351 18.1911 -2.15449
-16.6331 18.1976 -2.15914
-16.2597 18.184 -2.16974
-15.7598 18.1736 -2.18222
-15.5088 18.1768 -2.18718
-15.143 18.171 -2.19481
-14.7623 18.17 -2.20162
-22.4258 18.3468 -2.78879
-22.2366 18.3932 -2.7906
-21.7752 18.3635 -2.8039
-21.3808 18.3268 -2.81568
-21.1517 18.3881 -2.81688
-20.6645 18.3658 -2.82912
-20.2802 18.3155 -2.84061
-19.9943 18.3641 -2.84307
-19.7752 18.3502 -2.84831
-14.5727 18.1604 -2.20571
-14.391 18.1749 -2.20686
-14.104 18.1668 -2.21168
-7.05769 18.2051 -2.15216
-6.95379 18.2196 -2.14731
-6.93144 18.193 -2.14976
-6.6405 18.2004 -2.1396
-6.13447 18.1993 -2.12238
-5.84001 18.2095 -2.1104
-5.82446 18.1863 -2.11254
-5.50403 18.2297 -2.09488
-5.03132 18.2352 -2.07463
-4.78197 18.2663 -2.06011
-4.59166 18.2135 -2.05776
-19.5322 18.3384 -2.85367
-19.1589 18.326 -2.86131
-18.9053 18.3471 -2.86419
-18.415 18.3465 -2.87212
-18.0837 18.3209 -2.87894
-17.7988 18.3467 -2.88105
-17.3363 18.3269 -2.88842
-16.9311 18.3171 -2.89385
-16.6806 18.3537 -2.89374
-16.2019 18.3463 -2.89869
-15.9282 18.3974 -2.89706
-15.8598 18.3341 -2.90233
-15.5642 18.3377 -2.90402
-15.0177 18.315 -2.90863
-14.7644 18.3522 -2.90677
-14.7425 18.3212 -2.90923
-14.4494 18.3428 -2.90831
-13.9693 18.3329 -2.90971
-13.6964 18.3633 -2.90731
-13.6294 18.3088 -2.91154
-13.5668 18.3689 -2.90676
-7.41862 18.3559 -2.82061
-7.29631 18.3317 -2.81917
-7.03387 18.3402 -2.81085
-6.59837 18.3279 -2.79851
-6.2138 18.3045 -2.78801
-5.9204 18.3316 -2.77577
-5.45934 18.3234 -2.75994
-4.97914 18.2767 -2.74562
-4.80727 18.2879 -2.73795
-4.38833 18.2151 -2.72687
-3.86994 18.1824 -2.70737
-3.63522 18.2007 -2.69548
-3.24185 18.1965 -2.67774
-2.80569 18.1935 -2.65722
-2.52714 18.229 -2.64068
-2.13846 18.2182 -2.62187
-1.70095 18.2062 -2.59998
-1.41582 18.2198 -2.58358
-0.988625 18.2177 -2.56012
-0.598299 18.2242 -2.5375
-0.33053 18.2258 -2.52182
0.0995187 18.2168 -2.49693
0.553419 18.2112 -2.46968
0.77032 18.2114 -2.45615
1.25635 18.2326 -2.42362
1.54635 18.3038 -2.39949
1.584 18.268 -2.39972
1.84675 18.2475 -2.38388
-25.7826 18.3554 -3.62495
-25.5423 18.3729 -3.62621
-25.1593 18.3537 -3.62966
-24.7171 18.3508 -3.63282
-24.4256 18.3699 -3.63407
-23.988 18.373 -3.6366
-23.5668 18.3537 -3.63966
-23.3489 18.3621 -3.64049
-22.9229 18.3615 -3.64255
-22.4482 18.35 -3.645
-22.1964 18.3742 -3.64506
-21.7654 18.3671 -3.64674
-21.3734 18.3518 -3.6484
-21.0873 18.3722 -3.64827
-20.6371 18.3609 -3.64948
-20.2582 18.3366 -3.65085
-19.9776 18.3652 -3.6499
-19.5634 18.3544 -3.65034
-19.144 18.3544 -3.6501
-18.8952 18.3596 -3.64958
-18.395 18.352 -3.64898
-18.0298 18.3425 -3.64845
-17.7796 18.3512 -3.6473
-17.2776 18.3396 -3.64586
-16.9503 18.3406 -3.64433
-16.6616 18.3581 -3.64207
-16.1269 18.3508 -3.63916
-15.8572 18.3646 -3.63675
-15.8402 18.3382 -3.63777
-15.5711 18.3478 -3.63533
-15.0394 18.3433 -3.63114
-14.7458 18.3529 -3.62805
-14.7282 18.3275 -3.629
-14.4158 18.3472 -3.62502
-13.9118 18.3461 -3.61964
-13.6733 18.361 -3.61621
-13.5718 18.3529 -3.61536
-7.4382 18.3942 -3.49132
-7.28285 18.3398 -3.48954
-7.01694 18.347 -3.48152
-6.5421 18.3469 -3.46732
-6.16496 18.3319 -3.45636
-5.87861 18.3439 -3.44663
-5.41499 18.3397 -3.43154
-4.97385 18.284 -3.41913
-4.77027 18.3359 -3.40952
-4.3069 18.3404 -3.39264
-3.9748 18.3142 -3.38162
-3.69077 18.3361 -3.36983
-3.19028 18.3301 -3.35067
-2.85197 18.2897 -3.33908
-2.56152 18.3234 -3.32566
-2.07851 18.3311 -3.30516
-1.76542 18.3508 -3.29093
-1.68246 18.2718 -3.29097
-1.45819 18.3327 -3.2784
-0.978609 18.3178 -3.25779
-0.656637 18.3368 -3.24237
-0.637319 18.3123 -3.24259
-0.345092 18.3231 -3.22861
0.16274 18.3169 -3.20502
0.455715 18.324 -3.1907
0.472934 18.3005 -3.19091
0.775804 18.3086 -3.17581
1.30023 18.3142 -3.14961
1.53148 18.3357 -3.13708
1.89203 18.3255 -3.11915
2.42135 18.2855 -3.09344
2.73985 18.1955 -3.08048
2.99787 18.1991 -3.06657
3.50451 18.1907 -3.03955
3.79894 18.196 -3.02323
-29.9837 18.3756 -4.62367
