# .PCD v0.7 - Point Cloud Data file format
VERSION 0.7
FIELDS x y z
SIZE 4 4 4
TYPE F F F
COUNT 1 1 1
WIDTH 470
HEIGHT 1
VIEWPOINT 0 0 0 2.98023e-07 1 0 -0
POINTS 470
DATA ascii
-4.486428335889531 22.69974374570262 -4.19079416615478
-4.800335173297873 22.504762432133912 -4.181250309181634
-3.533327088638366 23.245284369761883 -4.218800781474455
-3.8817393240776346 23.040014038979162 -4.207729861389616
-4.23058712351258 22.832904631205064 -4.196946959074074
-2.607571198581805 23.759869060227576 -4.248308914806084
-2.8628399846918122 23.62073028850576 -4.240086922293444
-3.2807246669683923 23.36835781048864 -4.2252446153940575
-2.4377676081183486 23.86965394703944 -4.255230299326185
-2.607094959124985 23.737129184862837 -4.246603834627414
-10.263051113786645 19.525081402477923 -4.118986564954229
-10.540307998504819 19.358069148851115 -4.118787826136295
-10.773670147218649 19.229858853537362 -4.119677072369345
-9.58985211900636 19.89389985623912 -4.118819964893571
-9.971606281466368 19.668468021392698 -4.117543025801318
-10.264746975781573 19.504416785759513 -4.117644015221348
-8.625477507444005 20.444037920273047 -4.124137020901824
-8.996649225970604 20.222007216965267 -4.120845442017158
-9.340577497582434 20.023573170290824 -4.118848356014184
-7.711704636805557 20.966503291886774 -4.133641391735409
-7.992612429944881 20.798093551515244 -4.129764419000404
-8.465981080552766 20.52597026480687 -4.1248563916049825
-7.029081033474766 21.354018083477833 -4.143276825489801
-7.500051282115141 21.073076990689174 -4.135435975218248
-6.067563241374785 21.788114905012577 -4.152332700324347
-6.422736719227956 21.594751904675853 -4.146149422463566
-6.7531606674484514 21.448642421654775 -4.1432516691987935
-5.416877676201475 22.141602890697413 -4.165246788850367
-5.840144144183635 21.895168813599867 -4.155436677931624
-4.9610974506596355 22.38661844765995 -4.175168341174729
-5.183419461047157 22.26318367481725 -4.169907199382262
-12.099895619015042 18.54069017386939 -3.386072593141853
-11.19937395567254 19.02686921316876 -3.3761242655114274
-11.57173319361983 18.818573399040016 -3.379695696743703
-11.906868714481416 18.630985515150456 -3.38323775975279
-10.244523802683208 19.578360479706447 -3.369658687372997
-10.547543196947293 19.399190787007967 -3.3712702079495696
-10.969697377846433 19.151937044157783 -3.3740394181913227
-9.587668530522185 19.946336676668015 -3.3665178850212634
-10.027913808988233 19.692331268707946 -3.368224960380534
-8.693529087412408 20.427944006758132 -3.3636298598891097
-9.053757809180594 20.24992328258012 -3.36511237752974
-9.334548227736898 20.086215065624174 -3.36556773155872
-7.767058074199683 20.94788401209484 -3.363980667961658
-7.991282706520094 20.78919127196065 -3.3624526809065856
-8.388393509224649 20.525601113998327 -3.360720050008684
-7.704224440802118 20.831912157119625 -3.358351566147938
-6.091415004486256 21.913163633081822 -3.371956519164198
-6.469790065006476 21.665678526671524 -3.368335601688844
-6.729913194169265 21.43503537119723 -3.36370693109554
-5.1827580049441515 22.438410486312915 -3.3795889577800287
-5.530016465623058 22.243870095092934 -3.3766665264472406
-5.864183312807381 22.057239677286436 -3.3741391560547025
-4.231032065704351 22.97527221202774 -3.3893749736855554
-4.510596747918819 22.814356015384327 -3.386157070027588
-4.928467567410225 22.579812018980085 -3.381902517845913
-3.5524097488478126 23.361578594160935 -3.3978819370490667
-3.968153490307861 23.122942003174238 -3.3924727745945322
-2.5931998532066713 23.907454864953248 -3.411708298438427
-3.015422577430539 23.664728527610055 -3.405279128412548
-3.3197396696209425 23.48222148693308 -3.4005582579081417
-1.6595818045163266 24.437029410885483 -3.427057206878852
-1.9923088058602787 24.24585877000238 -3.4212911164906004
-2.363507333069964 24.034365452733407 -3.415174181809995
-1.471751349101626 24.54168718468766 -3.430298560603499
-12.133116735021435 18.563184261910113 -2.641864316751712
-11.185472708218745 19.079792379524573 -2.630289318682242
-11.5962854769253 18.847500093039844 -2.6351706385032236
-11.89013036039344 18.680507115367536 -2.6387563769981024
-10.296301725196242 19.582380689543015 -2.620350191362713
-10.60704119780078 19.404592342212347 -2.6237314865731065
-10.964002411680323 19.199156768343393 -2.6277154672303054
-9.338497901943974 20.13057884540351 -2.6106041895921814
-9.633194988053818 19.96377949823466 -2.6135165538627207
-10.010111624505301 19.74163698589363 -2.6173260356532513
-8.643132528723601 20.522257856449322 -2.6041095940191825
-9.09656395731972 20.26335307469823 -2.6082795810738695
-7.718311078952446 21.04097070326172 -2.5962010645051348
-8.089362085244176 20.832576928769637 -2.5992764537033928
-8.423782776131347 20.641239424751276 -2.6021349607989013
-6.760930833088841 21.59039290479678 -2.5889490442912306
-7.084152943642442 21.40162116543973 -2.591293976389442
-7.484447272048223 21.118739171383467 -2.5941080939491536
-6.11287445924793 21.951188854677987 -2.584491395847914
-6.545546962159067 21.70677270586123 -2.5874141332644185
-5.171496374701345 22.477581838139105 -2.578684877090262
-5.569962554029223 22.257840945731413 -2.5810641290661738
-5.851583969627202 22.09560820514617 -2.582787151460554
-4.2174991634825885 23.01680990366431 -2.573609459928825
-4.5351387601993665 22.837907315878336 -2.5752247636399397
-4.9212680102215 22.614782204486616 -2.577259166151227
-3.2992520254382196 23.549251322346212 -2.569494975885954
-3.5858851770159195 23.38131851411323 -2.5707079690128607
-3.9703346340760683 23.154883825205374 -2.572414702474695
-2.6273054046419837 23.925738047439488 -2.5668398548399236
-3.0126229172418273 23.702306879143293 -2.5682917241853054
-3.298795738165989 23.535523331893508 -2.569426420171173
-1.6773344926205422 24.465448459684197 -2.5636796715332415
-2.0632854184488054 24.24610021450368 -2.5648905391195798
-2.381287906684861 24.066985582803323 -2.5659652640892436
-1.0762919898910301 24.81467352171949 -2.562048208339471
-1.4472864828798502 24.597074811578196 -2.5630156199219747
-11.895961932928577 18.71824944405524 -1.8924907470204002
-12.188082077493721 18.564833569317145 -1.8961797352041303
-11.201352891037654 19.114969096607453 -1.8824215924221601
-11.64076904794645 18.861440867817148 -1.8889194063619987
-10.283310208670928 19.627174602520864 -1.868688637849393
-10.6616027290731 19.41682383808948 -1.874428656314953
-10.98457533804659 19.231439650354535 -1.8793939900062724
-9.321925784070341 20.17857871515484 -1.8529185361819995
-9.657944615445855 19.992043021046875 -1.8583519394315204
-10.019000667851293 19.77282129387298 -1.8646209852317446
-8.66550672365074 20.55047355460918 -1.8417253290991973
-9.103784261307009 20.293762860350622 -1.8494875543964324
-7.767737651764904 21.050715834978273 -1.8259768306640733
-8.129369452137654 20.84820539054652 -1.832441502184163
-8.406861083724284 20.689741608030033 -1.8374202603142045
-6.782848265060348 21.622222717773685 -1.8071217132736872
-7.138858063738702 21.416158102520406 -1.814020651487464
-7.48931040064665 21.156350309356313 -1.822396926425701
-5.856697638973748 22.137684947315677 -1.7892130168153977
-6.150553045769316 21.97459655816094 -1.794957551885439
-6.528819181041129 21.758576957879434 -1.8024326152551085
-5.1867873122087 22.51381593106122 -1.7756761383599708
-5.593044962548134 22.288799781630175 -1.783834989934135
-5.855232848107679 22.12055674957657 -1.7897204222402072
-4.237194924880821 23.055323051724596 -1.7555858133162847
-4.606223429094689 22.84113492108143 -1.7635900117627323
-4.936553162361179 22.648982501044756 -1.7706845083118836
-3.2817040987363506 23.603801208935163 -1.7345161891986332
-3.6209358315052693 23.410160633078014 -1.7420395531314963
-3.978582634188033 23.19817786892338 -1.750123704662693
-2.624334835646296 23.974998293175634 -1.7197894636836344
-3.064841355499473 23.725405718795166 -1.7297168460170576
-1.6651094896832235 24.523973025641514 -1.6975223325990383
-2.074641130903803 24.29019960692213 -1.7070877042099384
-2.3719525283726695 24.117607823052776 -1.714054706582898
-0.7456006816292882 25.053419690429525 -1.67548297202474
-1.094316329545893 24.849438470662214 -1.6839957849177718
-1.4412678173387818 24.644406882762254 -1.6924650116120752
-0.11295768613157264 25.41102613598256 -1.6601957107262673
-0.5247997897786021 25.174704209638612 -1.6702825589403056
-11.917507735365527 18.757609121455445 -1.141956580508348
-12.226067495286488 18.593623069942677 -1.1459530014982886
-10.964997453439091 19.3005733926732 -1.1254435801740097
-11.208254205285813 19.145624395575894 -1.130896094838009
-11.636026175449503 18.90593271603392 -1.1380922143697445
-10.289935690155245 19.674798073405338 -1.1126075307803767
-10.672886308878311 19.44843675755419 -1.1208985833312246
-10.965466519447329 19.278126309739314 -1.126790276104455
-9.34093360901058 20.211854287378372 -1.0915002254977406
-9.697680148398392 20.0046160954443 -1.100067925936561
-10.008703987445154 19.82204683730432 -1.10739093454779
-8.412921697487738 20.735945737644172 -1.0682482238839712
-8.694313268878664 20.575382740644855 -1.075649273136172
-9.109882626050139 20.34159208073255 -1.0859966885112973
-7.754275419882999 21.088139538659497 -1.0513989215812345
-8.159290357767047 20.875460491456394 -1.0616476458627995
-6.803848320728928 21.648258783276685 -1.0216070605201
-7.181725280140087 21.43458403531351 -1.0331685041210747
-7.530081409979015 21.179814077291198 -1.0471858750769396
-5.84094337288034 22.194713180772375 -0.9901638554872032
-6.176160343120081 22.004463189684945 -1.001377247013949
-6.547112500871494 21.79225530644232 -1.0135811714510083
-5.182627803158006 22.560190961911662 -0.9677313980179996
-5.6215675037838615 22.315482223784112 -0.9828743051166262
-4.255666000519932 23.09369665362939 -0.9330618601036569
-4.632262447602081 22.871833899132948 -0.9477346233919004
-4.928475972879729 22.701419446190915 -0.9587831758104548
-3.302456529984853 23.64018468207429 -0.8953560882916731
-3.6893850189046 23.4179169168767 -0.9109370649954287
-3.969411031918636 23.251027522794082 -0.9224156608572687
-2.375862834767169 24.16883497863115 -0.8568602273487744
-2.6560906048627326 24.007588211623144 -0.8687735769190099
-3.0821725861048934 23.7606763915757 -0.8867106563806746
-1.7295478124630441 24.541926964527967 -0.8285897747773483
-2.11442918137967 24.317601969954637 -0.845659425733045
-0.7308502934412529 25.116680638531104 -0.7833637930210926
-1.162903915494727 24.863737957558172 -0.8034440887943017
-1.4656683900717042 24.68224979103949 -0.8175991459673908
0.15511035552087504 25.624190664580766 -0.7417831568325917
-0.12602510836846292 25.45811598347035 -0.7554478260642512
-0.5127391327467234 25.2363689601214 -0.7736053771464255
0.40221765627684825 25.761124379114495 -0.7302235643942421
-11.900849746661537 18.806160165325966 -0.385540771055088
-12.289169320926003 18.602219569790492 -0.39042834805716753
-10.945000765602725 19.360658606156417 -0.36524037934290243
-11.269463855957962 19.162540966456177 -0.3735505081972361
-11.670451004511435 18.931785004183798 -0.3818240747795838
-10.29591327362831 19.714071537543976 -0.3507785362437983
-10.712666353575962 19.479366990485055 -0.3610154196669768
-9.338990022765053 20.260146144910184 -0.32316986549725657
-9.76138481668422 20.0192887530386 -0.3359190620507846
-10.060966353738262 19.832191750697607 -0.34597856072185307
-8.439294678373468 20.776355783176385 -0.2926337780524513
-8.761079713903653 20.58706765706636 -0.30442872446359104
-9.10648347193397 20.384927421105182 -0.3164983849913461
-7.484456418026024 21.31886272906268 -0.2562995276762381
-7.756349016220883 21.12598007884455 -0.2707935523404821
-8.155692177870671 20.924189891048673 -0.2835779488106529
-6.786198564746096 21.711606265594426 -0.227290137447552
-7.2090782760508265 21.46772175691363 -0.24569130816879836
-7.482661639868285 21.295772131812008 -0.2585825519712377
-5.899674347133656 22.204960602653458 -0.1877908437913911
-6.207326694101942 22.034046010041262 -0.20183137000663098
-6.56598895448667 21.834897760551566 -0.21776693779691314
-5.777536697783442 22.250028725193435 -0.1843374232238726
-5.820642840365069 22.262032923701707 -0.18279175437302309
-4.935452448292465 22.74971813272227 -0.14000409173623884
-5.213868961801278 22.591293973571442 -0.15428987063134914
-5.632171646367539 22.36059753219472 -0.17448112612946387
-4.257670322413597 23.142363881473035 -0.10303062392711304
-4.679437735972126 22.89298035798883 -0.12674971549824754
-3.3347913367689785 23.672665021630593 -0.050180991506521444
-3.720170350013708 23.447900334977476 -0.0729770592552641
-4.023429690449905 23.259933582541517 -0.09166741556995683
-2.4022708580163252 24.212274037595975 0.006949891386056173
-2.7242763274291084 24.016036864631193 -0.014104421491197172
-3.07064236208152 23.821787215050556 -0.03470785587779135
-1.444629291029186 24.75649374481959 0.06789177857231765
-1.7391065577370137 24.5868024424575 0.04860590409939114
-2.120511876086405 24.360564597075875 0.023369838965535905
-0.7514900347060371 25.151454984068653 0.11409325394102154
-1.2053966586596487 24.893110533553575 0.0837097489097145
-1.4471331584882243 24.727581622348314 0.06497479029779507
0.16176808404336462 25.677734880887016 0.177855647668975
-0.21532195785918717 25.46012443231212 0.15119955030782606
-0.5345214233893771 25.2685737272612 0.12819241328506603
0.6602557272927609 25.989974733508355 0.21622467468656126
0.4385747964994082 25.828772434632253 0.19684144246221047
-12.579183475866689 18.586860347059247 0.3818760920882598
-11.89467425211672 18.84464600094582 0.37777524716919153
-12.310343708127617 18.61202764033575 0.3707605914326124
-10.958158931276758 19.36424343156503 0.39780927441832903
-11.317708646428315 19.166717477871245 0.3896586650985463
-11.664383244139978 18.971767093888968 0.3820096802698001
-10.040678409117579 19.902047807607147 0.4273767211378945
-10.284703171089655 19.74405426193033 0.41707428894012644
-10.710775867036757 19.498589582370727 0.4038610408886365
-9.370655475183144 20.262277328364913 0.44879043284239906
-9.765144894235508 20.046707003482677 0.4353866750164852
-10.040953698261323 19.87920909515485 0.424480782186778
-8.417699098640847 20.809247437203805 0.4891602451128856
-8.742527760701934 20.62231336920392 0.47467152923230405
-9.086988862617492 20.420819961073786 0.4595517200366479
-7.489274987153214 21.34003341004393 0.5343368878589732
-7.770345808494918 21.140132016047694 0.5149839070420046
-8.188987214070679 20.941753613382403 0.49999367729699573
-6.8130534939651834 21.722882244939054 0.5705370300450183
-7.2275307135170355 21.479865533902775 0.5469216307489018
-5.8543518501304925 22.2665581944627 0.6269666652069557
-6.226157310077705 22.049701437403147 0.6036189919263992
-6.578897137397252 21.838571005687495 0.5814574870835632
-4.917750334932272 22.792087924142535 0.6868885917357979
-5.252174495494323 22.598414124620902 0.6641184064914656
-5.623731764043106 22.388546928583633 0.6402193164579058
-4.003654544064394 23.33061242643471 0.7538852803193081
-4.256346867178744 23.170467516153643 0.7333983302721485
-4.6729870656331585 22.92846828061188 0.7033405736089544
-3.332285796546715 23.70256716588675 0.8029599656438893
-3.7159960964229235 23.477096450741787 0.7729126818576519
-4.002801388708873 23.310704904259165 0.7511886344527832
-2.797933328490116 24.004197246107395 0.84448380714006
-3.0485178409501943 23.85372699343061 0.8235535050366694
-12.630354632687471 18.56378557961104 1.1523341515508334
-11.926479701936247 18.861749360840328 1.1495468429023181
-12.340147478688808 18.63279602587867 1.1425187937607229
-10.9739967644723 19.393724463438666 1.1727507789398608
-11.360935510985493 19.174378089209874 1.1618205641252168
-11.644823946140859 19.008957735162255 1.1539063926583832
-10.045130544190458 19.920435924879826 1.204991750852019
-10.326963161874385 19.7557980680694 1.193657201644657
-10.744651155599266 19.52068923722675 1.1794779964066877
-9.369387905642375 20.303293940388432 1.2336326893471896
-9.784357316851041 20.064339597318806 1.2149768235207188
-8.443450670069742 20.824653073178403 1.2790385206886352
-8.832330709348632 20.60888179485907 1.2595922414615952
-9.136775807143904 20.42721489785452 1.2430944916023963
-2.3815116490313284 24.24801056550871 0.879054748644259
-2.5981328930969276 24.12769715920725 0.8618136436445041
-1.428050085573119 24.80135632273237 0.9608360381226859
-1.7496362455055081 24.609987860264376 0.9321434043862262
-2.1530930072892818 24.374863479825855 0.8974646256390715
-0.5196634745794533 25.3402064231968 1.044355753957705
-0.7731004462237816 25.17112976100118 1.018168246871657
-1.2161175335258587 24.917238944260827 0.9786752541008843
0.13765015075067488 25.698633138642855 1.1028382029929928
-0.2244471632190317 25.486515931448235 1.0684373686298683
-0.5184181370193492 25.320773095641993 1.0417348731231306
1.106916366010105 26.250285238601922 1.1955067210109607
0.7200947274047285 26.028849698467187 1.1579149575767156
0.43763354660683884 25.86380986262837 1.1303329495135048
2.0354593576045574 26.774235929553647 1.2870983395026663
1.753643759534417 26.615581331366815 1.2590416635984418
1.3142891303730675 26.364358040540296 1.215294420831901
2.7257148542399814 27.16871766363954 1.3579687355158154
2.3089873647427557 26.928451943410973 1.3147169953335038
3.2450579336712626 27.471526718605094 1.4131599250201066
2.9695505762631016 27.312482417541148 1.3839573201878332
-8.362082281461634 20.88647104006846 1.286049004206189
-7.513888315943541 21.36758287466902 1.3357042996360806
-7.803723938168423 21.159922245552426 1.3109030195032454
-8.181542714461099 20.977492371193154 1.294209493431072
-6.558909056250117 21.9106523372132 1.3993133919702965
-6.845565525979376 21.741646969320268 1.3784875519867055
-7.230953296431256 21.51762070253151 1.3519569090726664
-5.888065966000323 22.287190235584294 1.4477933546625081
-6.306530389759844 22.047959217440596 1.4164511366206538
-6.558448231928152 21.89291789498527 1.396318356842237
-4.910765370170985 22.840317294648724 1.5255617641622328
-5.324418235784076 22.603867608244183 1.4913759811536007
-5.6051841592668445 22.43550319051381 1.4675032570538886
-3.984632171590193 23.378682229452455 1.6084402412086223
-4.304908247588109 23.19093875737949 1.5788623651716942
-4.72706086042876 22.94224952919213 1.5406749242436413
-3.3287005036997517 23.75151482837709 1.6695421327182944
-3.732246436388242 23.52380427755721 1.6319117427000678
-2.401803191894063 24.287657439616652 1.7624555658784735
-2.7790103925471246 24.068299403383868 1.7237669697138691
-3.07484687999791 23.89240261738262 1.6933403086539909
-1.4500625392925461 24.83649102213973 1.8634177973709076
-1.8375907445473036 24.612527692107363 1.821570283049518
-2.1166819721319854 24.446762213141714 1.7911687706888686
-1.345208655070321 24.88448066389918 1.872730680037526
3.665246707686418 27.713535847950162 1.4580387894719378
3.481139590460923 27.621778375740174 1.440181091308658
4.561975437135709 28.22704875822037 1.555353675093858
4.266405258328671 28.053192331034193 1.5224156868346652
3.897066407879915 27.845911164478487 1.482904921864252
5.516914643050626 28.775804852397677 1.6618459931712937
5.230607867773273 28.606281418947123 1.6290173215772739
4.8456325268370435 28.382622698270165 1.5857340645206501
6.052842515179076 29.074389719878727 1.7215186503244442
5.741813183020103 28.89808437129322 1.6864152459224955
5.518714801144572 28.759356365820967 1.6597530688791786
7.129971748939855 29.69681365761058 1.8466216909160562
6.734029877803772 29.466468103637364 1.8001116894840847
6.462365418394681 29.31380446984094 1.769057240857126
8.091922875653976 30.24718009494421 1.9600062067115336
7.736246529885523 30.041907537107008 1.9176283938488488
7.3930080098797255 29.841298078319248 1.8766392797594764
8.306010940456476 30.362127136866427 1.9845692991150083
-12.606879817594233 18.564461085592285 1.9298935921669558
-11.66799445770442 19.085302586397557 1.9473747561149444
-11.939349605128342 18.91669300575714 1.938000714629791
-12.339058694068676 18.69825920662057 1.9311593943704648
-10.996434484061123 19.443628557019764 1.9635887082889742
-11.380060536065212 19.231568360465637 1.95239387701112
-11.66738883365714 19.06529986800853 1.9435743095723983
-10.043944461628994 19.99582061525466 2.0038540857018083
-10.388665758038906 19.79447856280898 1.9878565417615452
-10.740694187734134 19.57493935488018 1.9700777384117774
-9.115594227257441 20.521135514735505 2.0507570230661627
-9.395998570250988 20.352858231537653 2.0337694504217967
-9.789225280613538 20.124387035751937 2.012763488814308
-8.47050990295894 20.882748593225156 2.088484953091791
-8.86185353892282 20.655842917862223 2.063601538988791
-7.508045356476597 21.43023857871446 2.1547100285336254
-7.872840725376012 21.19229107855353 2.122372724841687
-8.205296234247527 21.027778053299098 2.104502352033402
-6.547857002596286 21.98147519745315 2.2316724866310715
-6.871890857714273 21.78858067608083 2.2033001621029435
-7.241831279788592 21.57175817858814 2.1727934293859286
-5.631033191055929 22.51202789384632 2.3148498844660064
-5.903853035728346 22.34491041349292 2.2874306498548784
-6.300985232459123 22.115566216387837 2.2514990033045152
-5.542629710794856 22.540404251357504 2.318646567220393
-5.631472619976311 22.484073041339474 2.3091242418615043
-0.5241153564402636 25.36612639600173 1.9662171476703274
-0.8050170923438167 25.202759416678973 1.934088534545292
-1.190435885068311 24.98480097764197 1.8916945305891022
0.1505917499950602 25.75442557343375 2.044691704590981
-0.2741681403377758 25.50668260727201 1.9944488839713714
1.1180939629756734 26.309951404967794 2.1612021779416257
0.6834194980825692 26.059989304953916 2.108199215464206
0.4123092816196472 25.90267677397209 2.0753395939324455
2.0043871252409367 26.8196868224626 2.2722399883949866
1.674859535881568 26.626901650311453 2.230008768288821
1.337806335395237 26.43016328204812 2.187319848035861
2.9627957845308868 27.367197651007995 2.3958525815824916
2.6666054889992563 27.196366829280716 2.3569684686092507
2.3285099068902864 26.997079891751046 2.312284437991559
3.1408566127992947 27.47151000794048 2.419717497872519
8.74824596158422 30.613582459295305 2.0374335848377636
8.487233281368706 30.473803511616634 2.007280588033154
9.285668743655249 30.91846829197617 2.1021094500681685
9.004910483508901 30.76139322307371 2.068487670354965
-4.958439078432749 22.886807399863216 2.37818937894817
-5.3465723142038915 22.65914119065674 2.338830716311025
-4.007824435022356 23.430032232818938 2.4776020177579405
-4.382066774752411 23.217229875513116 2.437739981640117
-4.677255473061669 23.035076808931645 2.4041466365512165
-3.0551144579176945 23.98808802889547 2.5881350119405684
-3.378263247086518 23.794366868480182 2.54890988175131
-3.7801567839850367 23.557844006495063 2.5021626179574743
-2.405764875319276 24.35308867886166 2.6647087557866898
-2.8395369180908414 24.10235049657488 2.6117811040670973
-1.4875141274271035 24.876966399541743 2.780239339905011
-1.850950589705257 24.669493623968528 2.73374184020957
-2.1442640592101045 24.49345642627973 2.695061056671046
-0.8977672429586212 25.22754008068355 2.8607796809291526
-1.1883411583323915 25.047305505453092 2.819179463167077
3.6538249331262507 27.769263372369814 2.488747056194837
3.3410651077478133 27.590460063361682 2.4469709870302627
4.568876168053787 28.289447824384055 2.612655897749588
4.166481973839062 28.063186068696375 2.5581903110825848
3.8716599701707675 27.888376668963726 2.5171191626542178
5.527008562874334 28.840392167546433 2.746914222698598
5.211008592765811 28.658868942848816 2.7023216850093994
4.850881052275636 28.4509466122093 2.6517080805699798
6.446508859778067 29.37361441308869 2.8795758433578853
6.10615792370856 29.174727859770904 2.8299532390801594
5.763294777724138 28.973785038323236 2.7801407969468426
7.085172715261315 29.73390288142481 2.9717237626272968
6.662473749793715 29.492904091281485 2.9101945619404375
6.445111105299336 29.353642630695887 2.87620688959124
-10.068350918305955 20.054765603798224 2.8173574094863914
-10.329455410562263 19.93493137718787 2.8107166478106733
-9.095269686176543 20.591843990586657 2.870563769568664
-9.445926885912483 20.366726838446006 2.842758140798144
-9.810069814022931 20.167871492515232 2.82347250986884
-8.185264800456272 21.101342813116485 2.9333507674073576
-8.469402489914476 20.913674556218634 2.905997366183431
-8.897600253957721 20.67614139972696 2.8771855802334803
-7.466756715855416 21.502259674117724 2.9902839338916896
-7.911129407329955 21.1936240590996 2.9400569015614857
-8.187014498275111 21.065333194283813 2.924976364991164
-6.548968052889615 22.04448489443458 3.079478224929749
-6.910473354756542 21.811202724667606 3.038473680138304
-7.265926347217507 21.584091278399786 3.000082052412423
-6.117762954904109 22.31928542963579 3.129771673983129
-6.294838439142563 22.1687351009006 3.0998017873767076
-0.5234258714203368 25.4407735236842 2.91120740399978
-0.6819065882869357 25.35225780808644 2.89007492947581
0.4313362000229435 25.998433608603534 3.0471647195451417
0.10395304289516494 25.800782434064114 2.9985727898778145
-0.2944037137701008 25.56981792484205 2.9422926831505625
1.0852927546273379 26.366697366253433 3.1409580339257066
0.6715081095706927 26.128498259110785 3.080265620718776
2.009358520554074 26.90314569155088 3.281230764258565
1.6162392163435548 26.668153316395518 3.2195510381958727
1.33827157638202 26.50952743785456 3.1779809272754744
2.920376182087167 27.425431809821117 3.422948804572385
2.612211926861757 27.245151133900816 3.3738214405296643
2.30767556036823 27.061054903138746 3.3244138720284675
7.251111393555291 29.830749888700925 2.9963999337759595
8.04054079536651 30.281868320109318 3.1134134073269437
7.698126932931649 30.086171704627564 3.0624463375370605
7.3605711273177565 29.889354179462185 3.0118624200738036
9.018490040877447 30.842462311204937 3.2611231649498076
8.678711772976946 30.647737760399284 3.2095294750150756
8.320471181582397 30.438676176415832 3.1548205938903933
9.16924598476739 30.922573158556656 3.283122340965566
3.038213891808861 27.49831665802617 3.442713973373165
3.9147549374272352 28.00722266643367 3.5851365545091585
3.614542088646688 27.820950327373325 3.533520918846454
3.2180782490469784 27.5923282367366 3.469513371828009
4.561399412939171 28.368002192127808 3.6897318754527695
4.169216235267832 28.14132193277029 3.6244905075445293
5.547333265981013 28.936891812415798 3.8567033861497957
5.083446385473248 28.669466964800293 3.7776556178282497
4.8268322186442525 28.516410700675277 3.7332552489539492
6.00190815446647 29.201308578561065 3.9356203090481032
5.72807327498821 29.030942079319743 3.8857184545672
6.447310766721817 29.464136036630936 4.014406279359079
6.292736547405081 29.369466737165524 3.9862531281549933
7.390234881842531 30.02248912026084 4.184305444348924
7.0556881611042375 29.807889614030127 4.120396392493333
6.702496206766172 29.60392942921857 4.057811435543664
7.460461084946285 30.042652137761472 4.192833208065114
