# .PCD v0.7 - Point Cloud Data file format
VERSION 0.7
FIELDS x y z
SIZE 4 4 4
TYPE F F F
COUNT 1 1 1
WIDTH 848
HEIGHT 1
VIEWPOINT 0 0 0 2.98023e-07 1 0 -0
POINTS 848
DATA ascii
12.023171531753661 15.166846234888851 -2.5766354556424726
11.79152163698428 15.479412012204966 -2.5901050676323805
11.53096721611627 15.831400672846826 -2.6059675581019475
11.378640537916622 16.07306395176761 -2.6179997861546482
11.13212606723619 16.42232354357299 -2.635382093355296
10.91367516987495 16.74620804192984 -2.652275488409589
10.761521889089623 16.966794675751817 -2.664088028739653
10.50767275326873 17.31442309237945 -2.683000111710407
10.242986691109133 17.683618032554843 -2.703858890323333
10.118781867831816 17.86164597128529 -2.7142792984150796
9.857642990762042 18.272631232671564 -2.7394045929461655
9.74981663296281 18.551531225356097 -2.7579216374578834
9.698883811063705 18.561828303928024 -2.7578878524222947
9.531502926706787 18.765629839688554 -2.770374769479274
25.458622159773995 -3.829584355660914 -1.9229283257746081
25.335062384629104 -3.6227368360472343 -1.9178696550025585
25.099618984939415 -3.3202095457788174 -1.9093321473273945
24.843545193867712 -2.9598055116458597 -1.899902702735885
24.691945751405605 -2.7101122526776127 -1.8940965680108663
24.44342924724874 -2.3499586562909656 -1.8852307814025817
24.185992214533282 -2.0162339817733823 -1.8765486936898153
24.067870392559552 -1.8329334216771334 -1.8724223861906293
23.82302957788339 -1.4844200781459498 -1.8642759924321086
23.5412602438235 -1.1023614357237554 -1.8552702844477982
23.416665103780687 -0.8822469437476517 -1.8511144925119898
23.163604575848044 -0.5333287609405004 -1.8434124098965239
22.926170442394415 -0.2211065480422849 -1.836450370298897
22.778734145406506 0.02492528881827316 -1.8320658917665118
22.511178573796244 0.387115158155959 -1.8246508092541638
22.273916324094102 0.6834353780553077 -1.818349560697621
22.13643854215925 0.9296792915078067 -1.8146997817957207
21.890012057521155 1.2626808903485711 -1.80855900904605
21.649425687723028 1.6061925142913183 -1.8027909292151727
21.510909684395962 1.8129498130749817 -1.7996408537209747
21.2177488812334 2.21821170041087 -1.7932436510669132
21.000534303652604 2.511865096704035 -1.7887353809844595
20.86406261771776 2.7218240749847937 -1.7861326123125412
20.56666774683461 3.12629978345218 -1.7806231302305924
20.379734625551052 3.3950459522554617 -1.7774409965384457
20.228530930966965 3.641503840108686 -1.7752123646597044
19.91581048829438 4.075311085935049 -1.7706162589763212
19.772420742811065 4.30411576691453 -1.7688892322044587
19.74106092445373 4.302926123121711 -1.7681639796062583
19.59454004365537 4.528848285498585 -1.7665519936293423
19.285897360810264 4.961842352106178 -1.763230154494809
19.12537278760728 5.207857151060914 -1.7619208526382946
19.094454861039146 5.207753904945589 -1.7612308433795718
18.93139748153421 5.474942935140632 -1.7603426351690605
18.64141431135277 5.887214221883001 -1.75852630774226
18.51690758491852 6.091167891395894 -1.7582371664910053
18.45199423111936 6.169624373109315 -1.7578037040387264
14.968403006549039 11.21954098170613 -1.7931654449631682
14.83472648173761 11.315610867120412 -1.79384381915677
14.68814982941976 11.537697601224867 -1.7979097237216592
14.415858619656019 11.92689611557365 -1.8053098696221266
14.187317792595005 12.227416251791686 -1.8111737670709078
14.032923924893536 12.469011610894524 -1.8165528367276367
13.763673874377837 12.846662158697878 -1.825090560222704
13.465143187755148 13.176342138453991 -1.832318507517428
13.390919357672376 13.37302738141448 -1.8379528387214896
13.128962469284549 13.755499784575921 -1.8481070371876909
12.917087200902204 14.012718931548134 -1.8549029696738488
12.77222218753243 14.258186814329044 -1.8621813900007151
12.480339334057723 14.665074369789098 -1.8742946792902888
12.253275368930826 14.919250403894353 -1.8818594189179834
12.11439154846958 15.176765214517062 -1.8904294074255232
11.843823704931541 15.577259804990025 -1.9038527166285149
11.680463304272019 15.845289900022422 -1.9131961726017641
11.568128860060446 15.867909003834457 -1.9135822527325574
11.489494437253565 16.086809081847015 -1.9216994038155928
11.202363864021534 16.471523875409645 -1.9357387134749784
11.033332510401731 16.746447996629865 -1.9461610221229968
11.002221964056533 16.748244212132903 -1.946160923287336
10.843534362849347 16.99407952981861 -1.9557322280242393
10.547372728291082 17.40700347010212 -1.9721749587976727
10.385192111878428 17.65131117339738 -1.98215546268958
10.356130601501699 17.65198128291165 -1.9821815163292589
10.18912667998226 17.905004390837785 -1.9927706547724418
9.893073488281976 18.338302860446678 -2.011339767253297
9.778132118797716 18.540315315758907 -2.0201226250489137
9.563159900653465 18.83020672361926 -2.0330954084604476
9.226919450828944 19.241341952473782 -2.052036147665703
8.970622200243405 19.450894755161595 -2.0622767725534006
8.825729636403542 19.664628883622417 -2.072420152230155
8.528447996598441 20.075382357671135 -2.092353412868748
8.364040309045244 20.319936176949284 -2.104337707258693
27.87652444198163 -7.282085283192632 -0.9842384996845485
27.90118059178954 -7.188900318132815 -0.9832969089597842
27.687898423891763 -6.951944106330549 -0.9841601302670617
27.421800770580894 -6.579998838246709 -0.9847455352660757
27.281116515415643 -6.336819131808763 -0.9847708560195733
27.110283258245044 -6.1352856689464605 -0.985439215029979
14.380647282931173 11.827562938104286 -1.8019326502756663
14.022188718278784 12.227038198814828 -1.8090867957880068
26.959404657924402 -5.9550646026614995 -0.9860267510273206
26.735409041547946 -5.652303442878868 -0.9867058271116962
26.631205712730146 -5.466380542083007 -0.9867527906160684
26.377339482481684 -5.135772066545917 -0.9876733663003268
26.1322155736674 -4.773937182250947 -0.9883526174276052
25.990038195155353 -4.518740195148318 -0.9885171783156744
25.757639818988096 -4.209644876890959 -0.9894511645334664
25.475037789885754 -3.8367451846708485 -0.9906585447898468
25.367119615756387 -3.6310512778981097 -0.9908100152002428
25.090549406271656 -3.250131160197553 -0.992023683129422
24.862093380205245 -2.9401793290484926 -0.9930982372976048
24.718518811817336 -2.722546191194543 -0.9936985094930701
24.473831446650685 -2.349857537627217 -0.9947768071117189
24.208963233460135 -2.0362252642231233 -0.9964014088990266
24.055907558105318 -1.7859306816023524 -0.99709010866828
23.807745869922183 -1.4238029399864711 -0.9984532113141018
23.594635710929197 -1.1139332476089496 -0.9996880948044553
23.474406343781062 -0.9086375906976509 -1.0003130383031027
23.164053405502095 -0.4973854320128581 -1.0024201381985267
23.037117488208604 -0.22579124020757768 -1.002997150517172
22.94192005060783 -0.20248713050400025 -1.0039909343984945
22.82137907846891 0.01340673824761901 -1.004717048730118
22.509115158847347 0.40554534541446435 -1.0071603517919163
22.367572365312082 0.6797134614897276 -1.0080716135979748
22.29562526379188 0.7014104018879715 -1.0088243680641762
22.155132438915945 0.9084063324232605 -1.0099388675691008
21.886205205220357 1.3139762008191935 -1.0121402107873836
21.71395227504785 1.5852020151793302 -1.0135946070776578
21.683546659089977 1.5823480156534735 -1.0139385092160902
21.52209254219881 1.829660233589672 -1.015377804591039
21.227475052378534 2.24252458191197 -1.0181666428577953
21.062950933644785 2.489584294676012 -1.019768539329471
21.04006956316641 2.4889959995800766 -1.0200259518812294
20.872634268180466 2.7364230031684267 -1.021727061262967
20.574211672127728 3.14831857100874 -1.0248935832278214
20.418641783557238 3.401841434801716 -1.0265977594829987
20.38306523161058 3.394215154898668 -1.0270014864302437
20.241959141734565 3.6655759843446987 -1.0286197092418967
19.947194935464335 4.072039845025553 -1.0321072343362971
19.814401339673783 4.275111885252155 -1.0337419130398902
19.59067205908291 4.573254424195321 -1.0365653643598427
19.297866005585178 4.978270935010579 -1.0404112764437323
19.162827355277265 5.18601228155668 -1.0422713114456228
18.938822051507188 5.497108549401839 -1.0454155065061372
18.652222490618357 5.887869390642511 -1.0495673957613039
18.5587577799857 6.106629833928245 -1.0511703340938057
14.965038609480157 11.227996491181438 -1.1224054500172886
15.042799215877896 11.262526048143197 -1.121555472889164
14.852888759109092 11.33297104983102 -1.1247762467010172
14.718229948005595 11.539648952834733 -1.1282707308157738
14.425974582702535 11.944873806141503 -1.1356814202257919
14.208887283887607 12.24164531192136 -1.1412852078315228
14.067608354120088 12.463284773449638 -1.14525404711986
13.776994924994192 12.85343919608048 -1.1530199011720315
13.556257270306329 13.145175559623775 -1.1590065066307162
13.415562354369452 13.369728225947084 -1.1632555270886715
13.142841213943619 13.780501561300118 -1.171417375613907
12.981850285320403 14.028363454829671 -1.1763773629375218
12.951618688235403 14.02859094715374 -1.1768679716031876
12.77757792600504 14.303291455425668 -1.182409738704676
12.509352355271762 14.694045502404636 -1.1907711754588008
12.37948961362708 14.910073351899051 -1.1951609434487813
12.303241256464027 14.934579230924543 -1.196698766622576
12.163611478511173 15.206385564351844 -1.201929210528389
11.847851987507765 15.611980791232158 -1.2117129989253592
11.71868663654116 15.817704715376781 -1.216210759648687
11.651129821102664 15.839223709217025 -1.2176343659108464
11.505874624834702 16.1106197472132 -1.2232292648856677
11.212541997933906 16.51668822812456 -1.2330864035210767
11.077694572288356 16.723420946106668 -1.2379098608528583
10.85636989554845 17.019589601757644 -1.2454414707840762
10.563518623986251 17.42428819383765 -1.2557088025853504
10.4295189447625 17.631568476831756 -1.2607306813966985
10.18916897115279 17.933639133328036 -1.2690133612144097
9.934088810580375 18.30579582655077 -1.2785506017694213
9.775080934157893 18.5773455983654 -1.285062477084688
9.566734119827494 18.865051300904213 -1.2928396648692342
9.290913870625175 19.212807275614306 -1.3028255942926257
9.151078241152923 19.457229839230582 -1.308822019921098
8.91895887318141 19.77272831973069 -1.3177057537001395
8.628705869563223 20.140793790613582 -1.3285909364073052
8.50579900050924 20.366665812611807 -1.3341732057636984
8.302178378346058 20.400214563803345 -1.3389414446705592
8.389612530952236 20.548771137047982 -1.3390608795646686
26.93021008238829 -5.906804666396248 0.010994519234925448
26.748558948182314 -5.652577700972705 0.002377048953510208
26.59954494457044 -5.4346711520805115 -0.004683811023523887
26.366551593968886 -5.1196609175153895 -0.015654616090845508
26.123865279981565 -4.769067479670273 -0.02705877339751339
25.957079136152522 -4.522993820253477 -0.034865353141222855
25.721622422675647 -4.187413287307617 -0.04582655901257926
25.489123852532845 -3.852867509980983 -0.056606015276785104
25.340196769606667 -3.6303275618785418 -0.06347937769182277
25.075021543741656 -3.256063327744728 -0.07565381320624631
24.846928724336248 -2.9424386865818892 -0.08607570695039968
24.697743592098274 -2.721040417999652 -0.09285291302021714
24.430544952620302 -2.348175928128792 -0.10493673572760365
24.22616925462881 -2.0617417117983576 -0.11413032196813777
24.056154084945817 -1.7911981353772832 -0.1217042777321149
23.787536101423054 -1.4099345901982454 -0.133638200669302
23.57085833148782 -1.1114390751769807 -0.14321702545532777
23.43952994252682 -0.9062873334287489 -0.14895020905949496
23.16043448780799 -0.5137697917409462 -0.16112778914228532
22.958477594794047 -0.2303074843477868 -0.16988334969320218
22.791928451575146 0.021568380395464326 -0.17700958463985383
22.504696454404318 0.41512417063051893 -0.18930520846319632
22.34531384764705 0.6759389688505866 -0.1959684074401653
22.320752122931996 0.6770762143355151 -0.19709731568782907
22.153755985735696 0.9207327771408844 -0.20409850352742143
21.883635287740955 1.3085639329190109 -0.2153536434889456
21.70232923332999 1.5831382313396631 -0.22279792740758575
21.67569819556064 1.5827149639948892 -0.2240255581350179
21.512160529917736 1.8312714006745368 -0.230671917237105
21.219045878003513 2.2529696159158084 -0.2425590309093224
21.05839670566466 2.4893699268244425 -0.24899240766069863
20.875988339788513 2.727141944775025 -0.2563594019881341
20.570250884563016 3.1605106800923957 -0.26843303760297743
20.413609921164873 3.3906856372761633 -0.2745176362242472
20.228117477866892 3.666789767837596 -0.2816218506914989
19.937891332822026 4.072037720851225 -0.2927534686936405
19.80026112594251 4.281169455206129 -0.2978822073896288
19.58175417242478 4.57573042325591 -0.30614124015707755
19.307571635191938 4.9548467766131825 -0.3163276300405474
19.15552375997741 5.191485719847066 -0.3217387759202476
18.933380735870458 5.49706263430248 -0.3297970183472235
18.664821189017403 5.884369381471915 -0.33928827964148
18.5230012137134 6.10798953015173 -0.34408655579135583
18.29123339698005 6.421035448248627 -0.35220598620764887
18.024556612992093 6.796194517501181 -0.36129678603895665
17.87449016211864 7.013599218906872 -0.36628308980670654
17.645135484448293 7.352577945176133 -0.3737250692267524
17.47354279792803 7.615772493413969 -0.37913544477032857
14.987724564155776 11.176644502463382 -0.4507678267233528
14.842623977707866 11.333236551130723 -0.4550685843646989
14.708359162049906 11.54085440012357 -0.4582097300014979
14.426284913743851 11.947769167807314 -0.46502437469849023
14.26094903974342 12.2163044257085 -0.46853089321551566
14.235393692295867 12.215365041778332 -0.46962624881502624
14.072454862779574 12.460479714113614 -0.473233996400098
13.777849071054822 12.872425222123537 -0.48000527455683517
13.610948397926819 13.121602479297612 -0.4835274302709798
13.586898150815955 13.122570245319505 -0.4845179221625757
13.41893947339078 13.366275294259468 -0.4880583961222503
13.133174413258658 13.782451897506064 -0.4938976326461513
12.972696260467092 14.028193046632543 -0.4969100433022642
12.940834992459106 14.029280717935663 -0.49820289838716203
12.761128984104015 14.313151094032753 -0.5013289453238026
12.501539950295495 14.686458762589927 -0.5062584530982388
12.36436779412903 14.909505992783064 -0.5084005400042431
12.139997031788157 15.203959721766887 -0.5128602858876474
11.849132573632824 15.609310161150384 -0.5181094145790804
11.70434732406738 15.813815729439318 -0.5206068678372904
11.493945343174921 16.112992757638832 -0.5240930764304712
11.221563196038158 16.491530826241885 -0.5286098925487368
11.069159865686762 16.728732369823657 -0.5306428243130901
10.850496793103037 17.021728292861557 -0.5342334275570131
10.55845984306268 17.42784577651814 -0.538633503339212
10.42082648580613 17.6395583521891 -0.5402941155235881
10.19047105555905 17.958858722138693 -0.5435638235598028
9.91827062141306 18.33846283675962 -0.5472621023611712
9.784914649877743 18.555229119820414 -0.54847454275681
9.555879833385024 18.86606955724543 -0.5515393808679627
9.288286550043725 19.240962605487116 -0.554794833435748
9.136252349489775 19.456701227217387 -0.5565301507533464
8.921749355513853 19.759478231204195 -0.5589245370639633
8.66422086217657 20.128130077098987 -0.5616057872242999
8.521860884412472 20.343566399300425 -0.5628157093332711
28.18305985100895 -7.6689905859013034 0.07114242113583713
28.05032707234981 -7.466268759401432 0.06468453217884074
27.900173244977566 -7.246527975062683 0.0574136695220866
27.67025127078747 -6.933810067740762 0.04636111745405125
27.39954858188674 -6.5600825081409475 0.033378857076323154
27.25136803441319 -6.33897080321554 0.026270699840809986
27.085169870499534 -6.120475792692432 0.018364432391590357
26.893696246358342 -5.8087849580437485 1.0073782004530067
26.779578866285622 -5.661178977120274 0.9969667636983539
26.630032762465802 -5.44179915783139 0.9831441104527454
26.36276739362815 -5.069278645630908 0.958755492717918
26.161595934394853 -4.781951857926623 0.9404551975975517
26.007744387682745 -4.538416109326768 0.9263792368615711
25.71290190088515 -4.127459706943171 0.8999943772814922
25.507433816123374 -3.8363165823368006 0.8817068308012268
25.37702656988924 -3.6393598698758356 0.8701184335299299
25.078716443584575 -3.2213483528314537 0.8439674727789002
24.861849781400885 -2.926374452022218 0.8251526044897819
24.72560536486977 -2.7170313469951686 0.8133322777185059
24.4457227803617 -2.32394620541839 0.7893795155465315
24.24034271177552 -2.0399546120699217 0.7719603395632864
24.090442742659892 -1.7977903701496318 0.7592931040975088
23.803251286138 -1.4017738488460352 0.7353809372795315
23.640007424614076 -1.1362461333142255 0.7218802007342133
23.615165022480888 -1.1366982029902852 0.719866250471445
23.450147379483006 -0.8883743685481809 0.7063854885124696
23.15738065806365 -0.47426114948437226 0.6827342605355973
22.999223077684 -0.2337935702417031 0.6701070391997805
22.957255645749452 -0.23223231208520834 0.6667044856310353
22.79974451215488 0.031369969886804405 0.6543233936698587
22.511326565173118 0.44057421888829656 0.631815634021474
22.345028065165412 0.6750174215668152 0.618987669285259
22.166265826128544 0.946437442995571 0.6054486945031468
21.886242150659122 1.332267685914575 0.5843628147522113
21.73549291588988 1.558913654977729 0.5732489664213971
21.52265260065945 1.856128142288564 0.5576807124535077
21.228698722414915 2.2621176679883988 0.5364837968224043
21.09069237430564 2.4663631517132627 0.5267703214491561
20.879447292777467 2.7625907736814437 0.512020937062238
20.586291944729993 3.169250080536533 0.4918775762177776
20.43862530916558 3.418208266612986 0.4823420987729756
20.228975956434045 3.7005796487161997 0.468370382034875
19.963254266077467 4.074699739077337 0.45114918737637155
19.81339597837403 4.293639486741415 0.44172591217747015
19.59433953394627 4.600629560014337 0.42806610143376966
19.31731781717755 4.9831573509548335 0.41110835153773717
19.16810873041166 5.202575875474265 0.40237272932215884
18.93437401048108 5.532363799909033 0.3888170224965046
18.69916880245463 5.875908387318757 0.3756805719209708
18.551700940596227 6.094962582083372 0.36772984724091806
18.28766473240363 6.470934808156896 0.3536246968355998
18.059885331932858 6.7840987208646 0.3416028662338033
17.910063949878513 7.0048602759444165 0.3342021663543946
17.64486861761912 7.379239497636492 0.32119911389321576
17.409275377791687 7.694068336260658 0.3096554308010413
17.255475812016957 7.936970801955459 0.3031975016181796
16.999139815086675 8.316291885578968 0.2922949937023729
16.776599757255408 8.609596131695538 0.28234023943076947
16.640713540276256 8.819290697126322 0.2772480130827615
16.3540929339192 9.224764712597944 0.26603111142353786
16.130112605157958 9.520545220302338 0.2571050298097446
15.991897943876697 9.72634978112806 0.25247301674334865
15.699850409239748 10.130639611876395 0.24229657662883053
15.482003968466344 10.42586754189934 0.2349116409096681
15.348524683256016 10.652973231257358 0.23202368362437875
15.071949561070422 11.061512768192433 0.22461652570957047
14.90900083669613 11.30895751247216 0.22075457645671315
14.886494932763206 11.308949480333032 0.2191378212165198
14.722200915436407 11.558403458140521 0.2155496737219733
14.43846214237067 11.963407595815536 0.20899921981637504
14.265141921761392 12.214147815738507 0.2054130020133731
14.073712458339973 12.466206966124211 0.2009237887422528
13.769087400163606 12.892546585730587 0.1952183410579731
13.614219691863518 13.119924081313792 0.19296901747788553
13.580791213682417 13.121590055494357 0.19075409306038837
13.4208525440392 13.406774431810963 0.1906222660638368
13.147318647558782 13.799268958529716 0.18727785407490716
13.006074144579781 14.003421562192795 0.18582475220252537
12.789815168702026 14.300934687252438 0.1833811003144481
12.502123503301934 14.708329473326007 0.18110419097015562
12.358459258845924 14.913238876651949 0.18024064348435154
12.141695904019555 15.223857027631054 0.17937090959491098
11.858737850357386 15.6179959939078 0.17823485864615973
11.69783382642548 15.860738536173443 0.1786575064805067
11.494883854153981 16.14572350309226 0.17858747099300665
11.230874083947928 16.52123355517909 0.1790965356729708
11.07933568996653 16.740042407612588 0.17976614672049918
10.850966290760113 17.054944299434403 0.18043935191309268
10.604197368718657 17.402739409764536 0.18185602883828422
10.43402430548271 17.6499313661693 0.18343150002367414
10.197591735920595 17.966466975765474 0.18469969255123653
9.959647911930999 18.321481751689767 0.18800128057605958
9.814128849500449 18.541168595199995 0.19035142066235933
9.547595388561271 18.914098750760065 0.19360295422120233
9.316377649498001 19.232248246933366 0.1964752918008288
9.16848394041816 19.44746306481923 0.19906006576563517
8.90153605083089 19.82277827825112 0.20341880926559974
8.69530808745481 20.106781520035064 0.20673266080786545
8.509331026517586 20.384258962517908 0.2110126673073529
8.413333412749594 20.53285275209562 0.21355119888228047
28.059087041205444 -7.449669726623586 1.116633332131661
27.93279850725968 -7.25631104542772 1.1044778198271108
27.662542581847443 -6.882433343150941 1.0790271645783491
27.429676286999996 -6.567509811683852 1.0572829946864366
27.28539165884857 -6.349595075601737 1.043648885542205
27.048904891786396 -6.028526918555016 1.0217606962122865
21.78306653679742 1.4882700544740033 1.3774189164043698
21.765369184279482 1.580437166158142 1.3760217090398417
21.532862122108195 1.931559830413419 1.3517674097732542
21.286417960139765 2.2410630335251205 1.325946647416452
21.159583388547325 2.4977741025050246 1.3138918542703077
20.878109635556534 2.8214434503206642 1.285023909437383
20.620402680148832 3.1642062448156443 1.2596064797120032
20.51896784271852 3.420052887583912 1.2515361717908124
20.252382144970774 3.7577866857899442 1.2260410568358973
19.996081033872645 4.073792398603963 1.2018660781178792
19.87038321978905 4.288863720886285 1.1913378907548227
19.59147690786324 4.675752235949044 1.166917552716372
19.346001218081483 4.97608852968299 1.1451611812971634
19.22596716696547 5.196587073656227 1.136414449736178
18.953271631320916 5.590042170174584 1.1147433768670179
18.815982526259972 5.876893502306457 1.1064114439715498
18.701734852038218 5.885029929245141 1.0937100180798733
18.621335776188754 6.102519520318417 1.0904330494896168
18.317476574632785 6.511296440247527 1.0677217789606948
18.170824647822727 6.780774977150513 1.0592467153925775
18.08244021761649 6.802861292889702 1.0500413233190264
17.96602389682247 7.029449756143119 1.0441124355947737
17.66997406155867 7.424119397159739 1.024092171607995
17.563286969307374 7.701356981923848 1.0217191729215154
17.430621763333843 7.708747924436242 1.007353124759622
17.32479874976505 7.965554644474816 1.004898966001576
17.02057814534381 8.351087176954021 0.985934386419022
16.952945127367183 8.545579587796828 0.9860326650381617
16.816832823199313 8.590687648121996 0.9730333626374961
16.657017178507683 8.86900893429092 0.9669397186279811
16.350969093688377 9.28093639418171 0.9512573840426666
16.204409966332367 9.496042833834261 0.9448986625879043
16.17047541852787 9.497485679361887 0.9413602596815309
16.038949017135042 9.718625281421037 0.9372728320390844
15.71892469225147 10.15776880758272 0.9237935644737343
15.558629861762803 10.401429034444993 0.918636543415591
15.517534217548604 10.401441786071278 0.9143791683996727
15.368534549523076 10.697870873142634 0.9134896449004839
15.097058999065979 11.081160293309999 0.9049908941299218
14.986132359764083 11.29889197484908 0.9049605204303655
14.855444594636321 11.312152162286852 0.8924475579835436
14.746769606419345 11.600371293342443 0.8968465515333057
14.460756669327113 11.986435946560816 0.8893978156356499
14.373831084561845 12.193555963103018 0.892345677441194
14.112753230420076 12.502618645475222 0.8844407307818116
13.837128045208885 12.881568234211459 0.8799547469228832
13.70406372355645 13.10591613308814 0.8806427866058111
13.453417806762998 13.443256982588148 0.877516607610024
13.198359690859856 13.784261964262761 0.874950514744611
13.07165087415223 14.00896907757853 0.8775047670127529
12.8035525993842 14.37884595287745 0.8769638042012895
12.571585910275276 14.69481606003265 0.8769013289953156
12.463757713456593 14.92127383821002 0.8824605287291698
12.186682403916176 15.268995102102869 0.8817538168047805
11.916656106387139 15.60885277346884 0.8819046317865133
11.789904503887582 15.825385752125177 0.8862871353299395
11.510127451204799 16.21423337162611 0.8903955869998605
11.274242427860086 16.51509043597082 0.8925810436266541
11.148549628193724 16.736034467853194 0.8984549438200347
10.849900425012093 17.158448222787463 0.9056662185705768
10.622635949349132 17.429727120667597 0.9080344957667292
10.50908602731364 17.640899643033688 0.9151573428223947
10.202228374392305 18.02793057272422 0.9211710213587576
9.985725195091694 18.33403467661524 0.9284788330786267
9.847063768542714 18.58753734568963 0.9379495380287683
9.585772952099088 18.955623954561524 0.9477995133605073
9.490389880428117 19.20159239484047 0.96034908788514
9.349396461871887 19.24790328661897 0.9540224853602837
9.207980437936529 19.489122960919154 0.9633284303011775
8.959992542396888 19.845059256956635 0.97475587123524
8.777095341135249 20.128843212781515 0.9852380808639261
8.696182238510168 20.154057783283235 0.9818471071796657
8.59389858474935 20.390951959923935 0.9943363861201462
26.89403165506522 -5.785277258396304 2.0107938874535867
26.79826923329134 -5.646878905229084 1.9975925906092473
26.663095378003028 -5.420560267220408 1.978559541226843
26.379954055065074 -5.027488815784096 1.9402141278576202
26.232391866191353 -4.742794640156921 1.919238689269112
26.02805706101245 -4.469592961092642 1.8921269448027833
25.73098773088428 -4.09892792869276 1.85329884450268
25.628202089983265 -3.868428630667981 1.8387516275873588
25.418382574893887 -3.6062320102812158 1.8116907601527266
25.115290804983818 -3.2012412123965217 1.772634167040764
25.042009862147925 -2.9987479414535514 1.76229898288278
24.906567105157496 -2.9501770895339705 1.7462083703050455
24.7760887865401 -2.6757735949360715 1.7288701461779952
24.472239320960128 -2.2773549452287303 1.6907827401308912
24.356870044194117 -2.024543674516251 1.6758237887131466
24.210992941375007 -2.0230687391127917 1.6588914877404846
24.120129116337953 -1.729606947917842 1.6468192119945435
23.82731740421794 -1.3381168730001356 1.6111488897609623
23.769964632353894 -1.1774143398374524 1.6039463617556762
23.479684559798095 -0.8213950716902323 1.5693632821894905
23.20087686903369 -0.44365653173175745 1.5364855435369331
23.126324816741864 -0.26986167250536974 1.5277805338317734
22.824695465009633 0.11228094400828192 1.4930132058968546
22.5505801667753 0.431631928709731 1.461760125574897
22.42783612878413 0.6783108866551221 1.4482490471517258
22.178660671971652 1.0168026290429526 1.420731262240274
21.937810930651246 1.332560865678106 1.3944157187970276
21.900401313816072 1.4562446454061528 1.390846877748504
18.51526385159609 6.1689154077718165 1.800185512033062
18.30184653157387 6.509803659090776 1.7821587954067106
18.157808150747464 6.776186232351749 1.7719331520035966
18.067306767006084 6.79576387863044 1.7595790111899845
17.944609464934583 7.030498762928977 1.7517910581124898
17.66277306613087 7.407082316861615 1.7279022085449545
17.50437505627902 7.683474840648145 1.7180527990817245
17.42178239143698 7.706444200877751 1.7073287229712486
17.31966342739644 7.950653910878113 1.704727209404978
17.017240559149776 8.348935252088264 1.6820875181236632
16.886971008113232 8.563939616391238 1.6750783810745422
16.80081077323278 8.590845602988946 1.6644177250633252
16.63842568274473 8.870151331452504 1.6571155866732656
16.36164512790056 9.25166735894867 1.6404789181047112
16.183990583880377 9.494884376573854 1.6303858364790758
16.15141624480541 9.495936602717311 1.6259646823060168
15.995566282788584 9.744512024788294 1.6198642501082783
15.707918667701342 10.159437932130958 1.607126749393986
15.57535308517372 10.377196676628998 1.6035086877927118
15.503651244640778 10.39816206816208 1.5952799240858795
15.364124366884806 10.69013408473422 1.5963917842016215
15.088974552408777 11.076356400142735 1.586885034088966
14.962628937350487 11.300410910197101 1.5863359504511632
14.729685276650153 11.598614016567243 1.578004801568408
14.46363294379013 11.963260301631852 1.5713257458479193
14.317198330842475 12.206511893277305 1.57151574014653
14.079204806855712 12.520609410129795 1.5665061712277337
13.807033904080754 12.892204662259195 1.5628898080527946
13.658615461577229 13.112563126563368 1.5629810987081716
13.424523833391643 13.459680065315355 1.5640626444164138
13.173240985680879 13.811374851936769 1.5644899529950194
13.03570290048563 14.016589755217744 1.566369185839335
12.81705465274509 14.329182990019135 1.5689101303042787
12.554345344471786 14.700054790071409 1.5725984156238542
12.409777325433383 14.943688469429148 1.5788915632752865
12.15047212053127 15.30694306522833 1.5843108275736317
12.025457723427257 15.600652413208966 1.5986444026338642
11.896965225897322 15.600100295790664 1.5846558339974517
11.755450533596857 15.825226441995516 1.591280236348473
11.483650266567354 16.21489027683856 1.600886509146524
11.255005619996254 16.515225034212417 1.6070894490482446
11.137588279611599 16.707032125128002 1.6144430470705022
10.980129692648484 16.85857271562345 1.6138487958341416
27.620925501721263 -6.738647771559064 2.110446141190695
27.46036666305175 -6.5626951626726555 2.088908963953981
27.3253711142563 -6.317531958045016 2.069131048249336
27.045770266851832 -5.950053330498486 2.0308880881052147
23.350030285130938 -0.6812195006183996 2.416798377342782
23.196002236103453 -0.47042180003795653 2.392958826579494
23.118196447433547 -0.2490317764893878 2.380833487472584
22.822624066776836 0.08815931971729163 2.336019754719422
22.559104806928605 0.42765804423070714 2.2965907272548094
22.404521871044953 0.6840990904545283 2.2739840260142463
22.162601292021957 1.0068551174671723 2.2388779559282215
21.898241301238834 1.3589541188333931 2.2010849831747255
21.786391127794474 1.5692432163695067 2.1858445953868637
21.528794547410257 1.912717293275243 2.150209701889769
21.271787825590415 2.240608661248225 2.115069049377512
21.14306356407996 2.4747489508704925 2.098748438790068
20.860640575559557 2.833565758426101 2.061508885032545
20.624189454778296 3.1533391911881132 2.0312418025150247
20.49359562172911 3.409676477883077 2.016422430901325
20.23086194627788 3.7675291177177477 1.984345704225949
20.099616515570986 4.06042749020208 1.9712468526949358
19.985750789714952 4.069081280263394 1.9543881380611507
19.846961078903593 4.300905375075411 1.939286371586772
19.576103720373755 4.675227548652039 1.9087339345199918
19.319069067673023 5.010522316855512 1.8800019626935782
19.21777604679078 5.191647933968444 1.870514113065258
18.938886965636872 5.601421717014098 1.8424386759390234
18.804529695215344 5.870271032352843 1.831832622572462
18.7163363720836 5.89331532434411 1.819658083445205
18.602196133817728 6.108215153478707 1.8107152129205204
11.077173864742713 16.82538110487915 1.6203023259684342
10.84806988320126 17.120246705348936 1.6275141779147329
10.635618339312016 17.39722521540961 1.635152359810092
10.4869407715337 17.63779072819416 1.6458906002809637
10.191076411730084 18.024835618099683 1.6585455101421926
9.97418830707731 18.336831423742687 1.6715843090570366
9.83193879331637 18.575977824067884 1.6842965040935938
9.581439367308036 18.949578968004275 1.7023338222881632
9.406699639650155 19.224129221607285 1.7169307489036991
9.363036300377777 19.22532641150731 1.713201548760622
9.206565767574206 19.46627175978762 1.7263011744880026
8.894056679858922 19.918063338055713 1.7500946115312814
8.76191036212891 20.128873879293167 1.7627061350091635
8.718524718625973 20.122413722834622 1.758389255900446
8.607916195013393 20.341812602803355 1.7741271743450615
26.835477249603716 -5.683375655312423 3.0113328616579524
26.815564069116167 -5.667261257712823 3.007978719579534
26.659678604789015 -5.422624252768362 2.979064955540885
26.37020166681764 -5.011324947339956 2.926751604756239
26.280607553697315 -4.7918434594079535 2.908727136128628
26.138922074256737 -4.7434424689045525 2.886521761890805
26.041581507664482 -4.499088842036501 2.867108523327933
25.73728366933638 -4.081922613976934 2.8136792710351566
25.635815380133657 -3.881579214540974 2.7949288738080043
25.49258684303238 -3.8441872521616207 2.7727611748895065
25.415884602544303 -3.5865533865304404 2.7570421565396552
25.11179221854729 -3.198031256797614 2.7053686903573713
24.97743335067979 -2.913472307537712 2.6812143575387424
24.772988861542476 -2.6872445061172114 2.647558721402584
24.47302995338301 -2.297790023371186 2.5978355051861195
24.30944992022405 -2.0211296995495003 2.570375929835374
24.096399495261814 -1.7371671066438674 2.535715237424374
23.804250183957876 -1.3378145492137858 2.488645653276026
23.70538956782799 -1.1672821387952919 2.4726928265673425
23.512762312411457 -0.8733557625979178 2.4421631325529374
20.841698049447796 2.847038488453036 2.844903073119192
20.64119136243075 3.124403469463154 2.813352347731903
20.472386898219884 3.381972930418977 2.7879547647236835
20.199552664371033 3.780823463965229 2.7476302216881923
19.985530057131545 4.075680645717727 2.7163628551173575
19.84803443253742 4.283411826711889 2.6973753376373537
19.555151183264194 4.688586829378622 2.656818708373958
19.327678077119938 4.995098988696732 2.6260101482635556
19.214757397534193 5.177038403296891 2.612328219673829
18.91360857657975 5.59793792704745 2.574477834131367
18.697771387925524 5.892691652762554 2.5480425094661485
18.56866318722577 6.103777561229714 2.5344255939084768
18.266543502195503 6.530104962670459 2.5006814030382905
18.11732389712483 6.777231491161949 2.486582725784795
18.08254065442487 6.779158185564484 2.4804386982909845
17.916857538822505 7.027797247199921 2.464297003783209
17.631300540728322 7.433535270888939 2.436551069514232
17.46810252406951 7.681564540483411 2.4224387389234296
17.44741646930102 7.681606297379616 2.41878500916924
17.282572238029527 7.930621651974095 2.4052934424882677
16.995826551221054 8.334569773221912 2.381387193226097
16.827622645538526 8.588720908174762 2.369351284198012
16.794301545034475 8.58616890177158 2.3633975706075843
16.643349018333726 8.84229480484193 2.3553725987653977
16.339016627706997 9.250684924976552 2.333149324458072
16.17567128518437 9.494796043239516 2.323890817210086
15.981590764203336 9.778642983114606 2.313518297830636
15.701455703712025 10.16874652743486 2.298423860265933
15.560836578023412 10.374323256968959 2.292321910868825
15.349802297775938 10.673255940385761 2.2835040089533676
15.06015123599425 11.078246794437991 2.2725327345973807
14.923367542765682 11.28753101899722 2.2696632273703745
14.715421795845593 11.578711657944307 2.263955509448699
14.439382696581667 11.982954753310214 2.2595221884981758
14.291491916558302 12.20486836225683 2.2585210328811316
14.060306008426732 12.51916170531814 2.2548691840196535
13.794910104981087 12.892234227975457 2.2533599431300035
13.642158735039372 13.11378202809034 2.2540271628736916
13.417423339130584 13.42792783354546 2.2548679499832787
13.170469870278735 13.776562000362878 2.2573900175841652
13.002787167209497 14.04596206670999 2.263703364213167
12.781571086352082 14.360586270371726 2.268604565787447
12.531483226473984 14.693928598587828 2.2727005546207377
12.388510717798928 14.916411887261411 2.2795212973329404
12.11925874111171 15.289893476833655 2.2882896552087977
11.886082241686847 15.60355090115395 2.295848303263509
11.75141869282081 15.815480279694524 2.304641588319099
11.467063571923497 16.220173956330726 2.3192617525639916
11.250969227331918 16.518039503864614 2.3301852043075644
11.09673708579117 16.755843503362016 2.341953580993986
10.826231426573198 17.13397078964081 2.358732185909903
10.607970324389848 17.434531604927713 2.3726409937424644
10.470545531237168 17.637837610575634 2.3838871206771186
10.188255947747875 18.019664109413352 2.40321502125687
9.98916478192633 18.313197553762038 2.421001410318894
9.826547620158497 18.565499688547433 2.43798926327909
9.527497882862034 18.98976992039864 2.464916483355741
9.3777108427989 19.222274182233527 2.481783929253764
9.35111411750183 19.221321688809155 2.478841370631573
9.189682459489152 19.468031469254115 2.497147087874785
8.897524646100388 19.881851258985325 2.526664644452736
8.73415323142803 20.125704376487096 2.5455650466064053
8.659081298045086 20.21697539766236 2.551417012931854
27.30282547627947 -6.315489472232995 3.0965772027667526
27.0118333317209 -5.91757471415764 3.0432616147087863
26.905880859070667 -5.697616852417285 3.022164302711439
26.849066857656744 -5.64093209543948 3.012353737887959
24.017233187897652 -1.701616554286737 3.4216121170028524
23.810287363561834 -1.3680118561871795 3.3796054374582445
23.662972172210033 -1.1440052818243809 3.350191000928609
23.454557976475254 -0.8652187860482496 3.309348705561545
23.16902678624074 -0.45759106841378994 3.253962275821123
23.003571238788187 -0.20960276607791872 3.2223485743226172
22.776628909189334 0.1031117855337349 3.1796342003389055
22.521320150220856 0.46215715711695504 3.132327019420459
22.36830902410166 0.6920720857483228 3.1044568153742036
22.12421428305751 1.0421929789017363 3.060708904592845
21.907271849391076 1.3429519902522795 3.022382593002237
21.749120960692203 1.5788211040506916 2.9950688337970197
21.493006865276175 1.9369183222565571 2.951436851402362
21.26667928482207 2.251899088789652 2.913597470804169
21.11543775334974 2.4702256425288645 2.8889264135355264
20.98040494726048 2.6702926475346933 2.8672852332807963
18.804670117967373 5.8032631033319735 3.307151832118178
18.778457005858094 5.887953711916786 3.3060681187378878
18.604477608170747 6.150494142678118 3.283249533067149
18.32670729212709 6.547673914746687 3.247066640637488
18.203871712932838 6.767188929329798 3.2344899434101304
17.935627126540986 7.098664094205521 3.1991284692932354
17.698578715782784 7.438498397226525 3.1724362841358182
17.56442868984869 7.688998329222054 3.162284148874428
17.323627600951607 8.000725971037392 3.1354628410787644
17.026432525525856 8.392472188784824 3.104727652802908
16.911380409411993 8.589265568147145 3.09716419145762
16.646566304336037 8.916510573340878 3.0709104176133613
16.376387425709762 9.27570782160413 3.047915719108829
16.25764766170556 9.46730239657879 3.041612138466541
16.007945618652 9.801271776704738 3.0234151514856835
15.740167163409073 10.175326976634567 3.007245812613026
15.594823436949262 10.396323056079957 3.001236417555943
15.372064972814435 10.735345762985974 2.9935515511296673
15.102517479608245 11.086576893316945 2.9797167272989658
14.993108077071792 11.316189665080245 2.9844993343526998
14.718815151719777 11.68211196511075 2.974734775198767
14.4862896303892 11.981143287405999 2.9666237590233893
14.374425101069358 12.199268897653635 2.972336824480542
14.07730763542626 12.588566663157092 2.9663151760486777
13.83750784839775 12.88823975058487 2.9612257090985414
13.708801774386956 13.109215717073463 2.967036897601706
13.45138644526675 13.508952414606545 2.974794812708944
13.310552193476944 13.78804337138159 2.9880562661433707
13.209464364162072 13.800310349806288 2.9724570578947276
13.088914902111933 14.025227347222698 2.98296504648724
12.801868107844147 14.4241770748837 2.9907892796011577
12.666350462847484 14.6914683914329 3.00650937154657
12.571704257002908 14.71453201464602 2.9943619685269924
12.440231182143382 14.965663320389263 3.0095929322100785
12.174126934728472 15.327021248117326 3.020420327933163
11.996014926316791 15.595403653398634 3.0326384142049605
11.912143626934176 15.623466453032716 3.023865301754997
11.803630180927648 15.822165217269358 3.0374104131487174
11.5074340795051 16.260736562850017 3.060192329775342
11.390827849353443 16.481110840693837 3.0772466385837953
11.303845512524635 16.499887924020793 3.0673605285048904
11.150086794881975 16.76680567465993 3.0872876001702823
10.878907323914037 17.120752588863102 3.105116394907184
8.560268152986184 20.37202413957799 2.564334360588462
24.40814047610862 -2.271965726119317 3.5018066009109514
24.274772961522718 -2.071232911294964 3.474141434260618
24.164892066034213 -1.9197485957372606 3.451699948302714
21.687362927962532 1.6474555164322822 3.8076606929049204
21.501316799700824 1.9283510697316857 3.7702021288575507
21.2724322289485 2.2606483935085793 3.724718974711755
21.168759674011092 2.50630349197305 3.7065420554444115
20.877790934077264 2.866208840204568 3.649845153145355
20.71485383888509 3.156904688719438 3.620993424179522
20.680599825431436 3.147621759549503 3.613115595149088
20.55119454556888 3.418654933237346 3.592125465279299
20.258496751579745 3.7854728919271574 3.5387128759564543
20.16581955153439 4.010015851011243 3.5258410106135267
20.027238793510165 4.060102299464262 3.4969479047395735
19.879073198616833 4.324007115847818 3.4741714312498786
19.597894531133676 4.714461334651688 3.428051048002681
19.463790855369428 4.93924150712636 3.408376163347815
19.38361879936046 4.962149446505867 3.3918097435846235
19.24447734965302 5.224504830017761 3.3736528235030088
18.963194272939113 5.64260353327813 3.3331574687052514
18.85660240788827 5.858671464560507 3.3214713583097257
18.7675326670643 6.0209575637263715 3.3111027479935817
16.14969116808875 9.56922723074443 3.744582661228315
15.984878006834343 9.833886401697303 3.73649579419106
15.76524031459353 10.156312384671953 3.7235214052663475
15.620812037746155 10.41512942929471 3.721827081896918
15.37024305553458 10.776730812337275 3.710236891571947
15.250217208230552 11.068616086684568 3.720705532030766
15.152429404255432 11.04253764286176 3.6955248052496756
15.035005536023624 11.303928675177097 3.7040051610069913
14.737291987831382 11.69969525945722 3.6924255622794435
14.619247834956113 11.972485634436925 3.7047627683412685
14.489824174607788 11.986145576914245 3.678831030098385
14.382915762978945 12.213119686714125 3.6884939226399593
14.076184467125108 12.59963803375076 3.680278059891924
13.818741621302802 12.885313188986773 3.6696209451796173
13.730701055513679 13.076151639519598 3.6807687132997984
13.551145369836988 13.255425712851533 3.6718775841656663
10.849522315980565 17.21950306121892 3.116930690980733
10.737549208156068 17.387989647972436 3.128536311922465
10.654654860566264 17.405493772720142 3.1198395855862113
10.51274023966755 17.655856307606687 3.14142315003918
10.199901905152167 18.072608056404437 3.1683348431203955
10.067702793421564 18.337452085347234 3.1952669897848844
9.874291365956992 18.584498208236255 3.2120244365733877
9.583566626830141 18.99186500002386 3.244671316663097
9.479705923715832 19.180258704868503 3.2641730872315877
9.221689938598933 19.489535114905788 3.2863569342673102
8.928504540746959 19.897334466089987 3.3229253555399456
8.790040287125427 20.138623816657482 3.349407561846884
8.640648751564946 20.345853898849235 3.3690948508406127
19.125552979883956 5.427907831977366 4.120873824624325
18.910739034409556 5.623030607280263 4.078200243791816
18.754004908555796 5.867939073853371 4.053865182136749
18.71617206716714 5.867044258880876 4.044254617851767
18.565546525534767 6.177166835415871 4.027063057269632
18.293803303338258 6.5693238203154 3.9867132506553338
18.237727838037404 6.800364047839148 3.989846384989895
17.97256190661881 7.105303507113431 3.9478441054038234
17.678693690978424 7.442288069261426 3.9028547118419157
17.63091370144835 7.645912614518599 3.908581808914204
17.317313833245603 8.079020577883446 3.8708442604880515
17.041060815799906 8.387726190138824 3.8330666620024436
16.965193894978828 8.579161664233974 3.8335580536827605
16.677609804882824 8.95300105442007 3.802720473562048
16.38918327390491 9.274960022213481 3.7684317703318726
16.27980995780033 9.479400913990506 3.7651055965070803
16.027938282903264 9.845930571221828 3.747863532897296
15.818173234400735 10.174964382496096 3.7378704217170275
15.696584998372487 10.423996493614327 3.7402471657141136
15.445332532929392 10.836440391160936 3.734703620518304
15.290610428699331 11.05734306698345 3.7282554295955483
15.192000461430247 11.206441094932497 3.7258099749844282
14.807050323557931 11.76192574784685 3.716106466924111
14.621289706960255 12.014117885784673 3.711067765809678
14.444757894356634 12.262827184242214 3.7088484611579497
14.142479603986132 12.658364909811553 3.702883168641904
14.054392143676251 12.837802729743222 3.7112235373444946
13.925035059573052 12.880475640812428 3.6908111186194317
13.770084835835519 13.125934649917335 3.696524437779483
13.456791401006457 13.556490607933483 3.7003484550199133
13.36510447234122 13.777827990869923 3.7173099314012257
13.230078629777212 13.788676944099128 3.6922698863731105
13.104058550216443 14.059253522012053 3.7116128302079767
12.825521034788428 14.444919975893216 3.721676572646923
12.717072643976145 14.711897240512533 3.745978570878634
12.605511043630948 14.693145924465892 3.7216816853317773
12.474136013899223 14.972281962688276 3.745064515022376
12.152442075264183 15.363096426816382 3.75412082085123
12.075121731504439 15.592755578765003 3.7807916693044747
11.917142180470378 15.577309936175393 3.7495891131187866
11.822140295452355 15.893204440657016 3.7897212962284073
11.536184482509338 16.259024957428938 3.8065391289062465
11.43499585305058 16.4842235994902 3.830808531412763
11.186448524909848 16.772826433385408 3.8428849281057644
10.850435089061502 17.1971261032307 3.868100319478237
10.838108170545238 17.377294826710678 3.9007232497656616
10.544456686125562 17.699852949414815 3.916438151322886
10.230942910283122 18.08469375756956 3.943353594399057
10.108619867232116 18.349695320249726 3.977414987304731
9.908466254545553 18.6082700722481 3.9993939131280865
9.771564624046833 18.987002357127817 4.055732424985854
9.64425267937851 18.920146154870658 4.023720264364989
9.528371458527586 19.169797703612744 4.05811615837328
9.359763479720097 19.327229846427514 4.0664603999303015
15.91013768217481 9.929375706275415 4.4569022354184655
15.700281144278716 10.161852682522067 4.433542514297728
15.568338055771896 10.36594217408335 4.4276941212894565
15.317956385092188 10.704736518562624 4.411870224968236
15.051621664296306 11.07944472916568 4.399665548320419
14.908445053498477 11.300149503619478 4.397328102996033
14.682066430526433 11.66252856266657 4.397950840199894
14.460799143187536 11.97852247994466 4.3944256532283354
14.319532995451066 12.196242076005785 4.396061260677961
14.042299125804195 12.572428967615469 4.393192686956666
13.800606433998865 12.877286255223023 4.388897670157163
13.68257343507996 13.103586173174243 4.401514068843453
13.394534200870574 13.509537091418443 4.4087577090706995
13.174285617594292 13.806003370127188 4.413734594737492
13.034303792147318 14.028578879269737 4.424588852093818
12.73611650690259 14.448655839968707 4.439970219629722
12.601733272561328 14.691013514592832 4.458302956027981
12.528551542577086 14.711473728373905 4.446665397475341
12.41868850478769 14.898259792454025 4.460553667316957
12.109470100336408 15.34436292898617 4.4861292168294336
11.94368859393478 15.595668350272263 4.50376944319413
11.912875724287423 15.593401798866337 4.4970180437607405
11.740188510933722 15.870965418525147 4.520277519306686
11.478397485449245 16.224751086462792 4.54341436336287
11.306480813389362 16.499049873379267 4.568857653593971
11.267358988714506 16.500551016748613 4.561659156060152
11.107466701681329 16.772543522691716 4.590485078077505
10.915286202379503 17.032487684134868 4.611491446217883
9.435541940587449 19.371880386530613 4.086292609154753
9.223046996211265 19.598901622221987 4.103589161045531
8.984745408598043 19.874754605102996 4.1283384647278
8.899451265939307 20.09439854826846 4.162852616633081
8.688238821963383 20.351162394260626 4.188935541337553
10.978312526724931 17.00335655218083 4.616798367097361
10.798949492702665 17.20373480776472 4.628056681196879
10.69348679511468 17.38334438865287 4.6487999391287325
10.449067592384761 17.712825507943155 4.679314292795365
10.190113787016214 18.063980429702337 4.7139835983337415
10.049997891578037 18.292797593905327 4.742535728886411
9.814254536004942 18.618076122844556 4.778502139848473
