# .PCD v0.7 - Point Cloud Data file format
VERSION 0.7
FIELDS x y z
SIZE 4 4 4
TYPE F F F
COUNT 1 1 1
WIDTH 379
HEIGHT 1
VIEWPOINT 0 0 0 2.98023e-07 1 0 -0
POINTS 379
DATA ascii
20.094333869064556 -13.574903407856656 -3.7927421614783965
19.28762572328928 -14.028650446442652 -3.767324075520008
19.53158484134157 -13.834995234437127 -3.7705681328893856
19.88106008196497 -13.596680760711756 -3.7787063841459982
18.61795251710378 -14.469909111811406 -3.7538599862348776
19.017675775684364 -14.176914753710449 -3.759388333566563
19.285530578071185 -13.994116251070086 -3.7645963221579035
18.473863977090655 -14.564572492077248 -3.7512812332747387
17.70179036095009 -15.11621323965286 -3.7434903690330317
18.10623370074427 -14.821352875062113 -3.746602149416108
18.403979864625843 -14.608110972561457 -3.7498951465018893
16.79546440135926 -15.733511962449137 -3.7372130446801837
17.18200326699639 -15.475060110653214 -3.739630386931624
17.492612312611026 -15.24810727538685 -3.740662113167722
15.884027012234785 -16.376969461089534 -3.7388126862787527
16.259798905487155 -16.113121329047907 -3.737571122859693
16.5754412164543 -15.88060435805023 -3.7363162698702395
14.97948159193052 -17.02814927663994 -3.747758016641666
15.366607928406474 -16.77080002864572 -3.7451427617176907
15.643953005322537 -16.538922181129355 -3.739578672422105
14.076034831373276 -17.6941123233182 -3.7645867963575372
14.393650607166878 -17.387528481658233 -3.7510262738107856
14.737487465535674 -17.13278691675422 -3.744703842586634
13.495952041446758 -18.024787411657154 -3.769259595905292
13.85576829779972 -17.845265590604765 -3.7685809191982953
12.50110901087043 -18.615795346811694 -3.784997250570714
12.925829864983351 -18.31544417701701 -3.7725455471270344
13.1775834072258 -18.135480524164883 -3.7656060909302163
11.648548605666555 -19.2103084574935 -3.813402099682233
12.013214263578023 -18.95680561293425 -3.8006381213583227
12.269894673717289 -18.770233560275994 -3.7913802863529864
10.846947273093948 -19.856621287940573 -3.854743384825815
11.074695626767921 -19.62642953073757 -3.8374765632205174
20.136765646865424 -13.527033189678304 -2.905630801853988
19.24089761378731 -14.101905644079942 -2.8969104108707824
19.538365557318112 -13.886131534423892 -2.8981570455794188
19.943490242130107 -13.598698536251947 -2.9007910442889333
18.356650719933967 -14.708418073528053 -2.8939012153873844
18.64329840179351 -14.515600004617957 -2.894725680123403
19.033780984469605 -14.236407242641647 -2.895496855230925
17.451247174474737 -15.358629021375604 -2.896425298914769
17.71127124160812 -15.163128905468563 -2.8947973177881976
18.123601094802773 -14.876531177233353 -2.89423506635728
16.544049088595624 -15.996662146920409 -2.90237845335628
16.818908845062317 -15.794336556664897 -2.8996062826021354
17.18355208294565 -15.530419001800032 -2.896785223529757
17.449051141189802 -15.330838427457694 -2.8946915173826127
15.871928052725323 -16.451402988069958 -2.9084419504202073
16.298382330699788 -16.147608313850007 -2.9033832563278903
16.545896574944855 -15.96933363286657 -2.900738647179119
14.962632309348365 -17.09164808509139 -2.922008394740497
15.3666876344641 -16.796570831838338 -2.9147394466246928
15.661058124149566 -16.57974781050558 -2.909843182533051
14.071594027016102 -17.769381676610813 -2.9432046798189595
14.473979746723098 -17.44924827068142 -2.9320943121571066
14.756450754678443 -17.228774665489194 -2.9251288771180386
13.14810612773846 -18.35321337620093 -2.961453763673473
13.558544383956198 -18.093135024968376 -2.9527818249244153
13.82878291016119 -17.926945032833583 -2.947836677960912
12.238804367587102 -18.99659546579589 -2.9889026986050333
12.61277265913308 -18.731407309629873 -2.9770376586076237
12.926370851861085 -18.504338025864616 -2.9672934745442747
11.309837388992472 -19.65102626558633 -3.0215237182840204
11.645474021468946 -19.394563449295518 -3.007674141745846
12.017607375905403 -19.142667635089687 -2.99548660382987
11.192578490797807 -19.743741236549344 -3.0267455663995406
9.557173984631708 -20.87432959823379 -3.0951000267030264
9.707072113860034 -20.782688492089253 -3.0891980649771043
9.207243655199855 -21.221863173396972 -3.120227460963217
9.341708863040456 -21.00791270607053 -3.1039466167486207
7.5761569237873685 -22.422832884471426 -3.212079923360058
4.457095787874146 -24.486730870094018 -3.4043404666224126
20.126626862387344 -13.563205435950094 -2.023784075967262
20.313721967354866 -13.439540505017465 -2.022730923296036
19.22701765658034 -14.185922196314477 -2.0309727718734965
19.60089363820388 -13.928230783247816 -2.0277696144676725
19.91493206673883 -13.699957102505833 -2.02496266838833
18.331845550695018 -14.803350208395665 -2.0402840465749916
18.631551268186747 -14.589684295425513 -2.036690603734316
19.00208027307178 -14.333206228157245 -2.032837941951712
17.42288333393514 -15.448017266102635 -2.0527596364131386
17.73627557987489 -15.218954296879962 -2.0479475548900163
18.110513422321105 -14.950979730904011 -2.042763545347058
16.50190242581451 -16.076186481721095 -2.0670082041128124
16.79611894260021 -15.872849023888394 -2.0621006887122926
17.20230596539605 -15.598146010073224 -2.055931629672122
15.590749453742184 -16.72434146970614 -2.084739386662181
15.890018858835116 -16.505939641785954 -2.078427877446911
16.296269663143736 -16.217024210376707 -2.070585624735892
14.711241182639705 -17.33145347960852 -2.1036343239512485
14.99569872325333 -17.13955621828518 -2.097463652408317
15.386323830849758 -16.861275552287818 -2.0887605437554555
13.80624938898305 -17.973273794778773 -2.126433665060667
14.054110439981484 -17.78834737686918 -2.1195494456242616
14.466869395894932 -17.49379684409436 -2.109080919852733
13.145000341275718 -18.431218669039865 -2.144350822863981
13.558325384193404 -18.13947534637945 -2.1327573131604787
13.806003261922617 -17.953748915290294 -2.125584098506172
12.2250002813137 -19.065402892043902 -2.1715120070410046
12.620777243958422 -18.788416319920806 -2.1593068929775283
12.900714707793767 -18.593641446825178 -2.150998650126683
11.341506208938927 -19.685536063914384 -2.200740560309884
11.721271880472854 -19.417024835236546 -2.187778422957388
12.01833747505853 -19.200944683311953 -2.177656807651786
10.407794636022155 -20.319866430308917 -2.233419774705283
10.779220200948444 -20.06291143716352 -2.2198768812061433
11.10536198664179 -19.842164786596367 -2.208544869279919
9.500055240268493 -20.966954517410496 -2.2693925756880997
9.875020804339586 -20.700530369908176 -2.2542676630647707
10.187166190104792 -20.469625360660622 -2.2415452388896595
9.283890347468347 -21.108544141802305 -2.2777254210513918
4.9039790623497845 -24.353201647587703 -2.496733897428998
5.224486793505366 -24.172660582955384 -2.481839645377271
4.495420650360467 -24.513689252473434 -2.512364025249923
4.829725784243452 -24.335272068502874 -2.4970297944800675
3.8269053284478285 -24.913987481411116 -2.546179990690616
28.026807029804942 -8.09212223706784 -0.9883204853288939
27.135288235011984 -8.711825326541899 -1.0037034513568388
27.49125680520932 -8.468243016504971 -0.9975424674940861
27.804494846166797 -8.242481138633066 -0.9920844499683689
26.226722515621145 -9.3532520575498 -1.0199193168883747
26.529848526158673 -9.136460551916048 -1.014436141317791
26.89432789421806 -8.883751175208236 -1.0079709534124168
26.046746487342748 -9.475064445913768 -1.0231453872647203
25.31832229182724 -9.993217915417574 -1.036623143273609
25.6311476268992 -9.765646317283652 -1.0307533815825152
25.939589546922832 -9.554410807456353 -1.025132515321126
24.404621386593213 -10.632566295215291 -1.0539217161458336
24.706842271001175 -10.412221309366526 -1.04806145174223
25.09480881339394 -10.144221688512532 -1.0407554748943249
23.486281565619535 -11.273547531121594 -1.0718699498768924
23.779563444590607 -11.058949852273681 -1.065981078528494
24.159785613766815 -10.793181525540518 -1.058552803269271
22.60060949438058 -11.885401267256979 -1.0896947608914451
22.87112202615291 -11.701623168967805 -1.0842265443415493
23.281368060372195 -11.409064661880045 -1.0758846883633741
21.696613418313174 -12.528775043441364 -1.1087105705818274
21.935896863398476 -12.349906187050731 -1.103522461626242
22.369863797320917 -12.048334758371935 -1.0944756825745965
20.79297988817423 -13.167810556110705 -1.1283532796873939
21.038249973414207 -12.979962111307742 -1.1227920792646542
21.452296054793877 -12.688151422075904 -1.113806856363134
21.697320066189302 -12.503225669603241 -1.1084153004517616
20.120624742140073 -13.620415074451085 -1.1431563346220472
20.54850809320469 -13.32199391119413 -1.1335714281193752
20.792522492586606 -13.14830616507922 -1.128130394312964
19.208900302605826 -14.254951994589955 -1.1641073415378234
19.61500699966798 -13.965799595032912 -1.1546023178381997
19.88669755403797 -13.778975758352958 -1.148401445394409
18.29606560599533 -14.889024087721163 -1.1858414993905684
18.707902052403266 -14.599684869713132 -1.175899279852859
19.002008090680196 -14.393130953575293 -1.168887258816714
17.393990205885245 -15.51828478358642 -1.208148472418628
17.765944216493033 -15.2619607102651 -1.1989023868301247
18.08903220611936 -15.03571910372715 -1.1909183858775634
16.51016860707217 -16.140271092664918 -1.2308793290815574
16.85882842207691 -15.894442784241631 -1.2218157725562155
17.174261996483004 -15.666918482490859 -1.2136398355019593
15.594152189631142 -16.780040333180494 -1.255228340368022
15.9269441746506 -16.541347082281206 -1.2461922572822823
16.263261699712537 -16.304422932604016 -1.2372343554279122
14.684829472315814 -17.418658072072436 -1.2803351649588037
14.998039725872136 -17.192207301867825 -1.2714926929617305
15.372949651844571 -16.927243287373848 -1.2611302799355468
13.763633360030736 -18.046561504798113 -1.306378748227369
14.056085633471056 -17.841101170497073 -1.2979234858713087
14.471750334794198 -17.557505441792724 -1.2861796322455927
12.854894595039418 -18.68804538024328 -1.3333385636102562
13.150507336827825 -18.473144969105796 -1.3243740503212489
13.555841167164608 -18.184608848033097 -1.3123287117944917
11.97223380856559 -19.292416696848477 -1.360083033868024
12.218150748769213 -19.118485389261515 -1.3524592331492777
12.645743637469687 -18.82195744556006 -1.3394502677484421
11.066503616282008 -19.93713486887239 -1.3888397604302958
11.312843546215623 -19.750459676325452 -1.3807374236932817
11.72684682709587 -19.458325214249964 -1.3676392946297675
11.972186564046345 -19.273717580606252 -1.359763117318292
10.395314317999592 -20.391074867329923 -1.4103196509927023
10.831305186863801 -20.091611148197607 -1.3962342361829494
11.068332757616561 -19.916564712471313 -1.3884417149836747
9.257750679762603 -21.27364728342027 -1.4498700675919276
9.486121369911757 -21.032960224818893 -1.4406608582315183
9.89100564987674 -20.73943502766573 -1.4269018684613295
10.16350690524264 -20.550943077656537 -1.4178939272284041
9.245174795394645 -21.244962680772257 -1.4496108105923629
9.286011394606955 -21.171755496979138 -1.447405695058262
5.606411472196239 -23.94102894009178 -1.5830402662336596
5.835104054335366 -23.70124943341106 -1.572907726477888
4.820251221010663 -24.469197533026367 -1.6125030775967404
5.58465019994846 -23.872796762387814 -1.5822424660995797
4.7790962592903625 -24.30231781822038 -1.6102591860736188
25.2743823476962 -10.07859359898601 -0.05291405344910327
25.672037527525777 -9.800752267264428 -0.036132072683426
25.901813331572455 -9.634553521642887 -0.026417512045700198
24.375070371371844 -10.713180461985672 -0.0904523706039706
24.749437489954488 -10.44500599396466 -0.07490638083650758
25.065877967727072 -10.21732506204932 -0.06170166410896272
23.48671478820543 -11.3272404193599 -0.12704626722979717
23.85130490415834 -11.073268214151046 -0.1120997780103119
24.154681944565198 -10.859383522733758 -0.09961111510241527
22.57300240359529 -11.967564661488058 -0.16404303288666422
22.889175307529868 -11.741381994762271 -0.15133294335599956
23.24473948042159 -11.495011140427492 -0.13691491041223003
21.663870476663707 -12.606044639301915 -0.20020437054162143
21.980107612981953 -12.381375544808296 -0.1877093733636579
22.355947751982676 -12.116260499764783 -0.17275609823272586
20.747723063236524 -13.242065341080696 -0.23600320920103646
21.05912865478222 -13.01996123013881 -0.22394547034703494
21.451858533657774 -12.745797827143193 -0.2085947304211575
19.863107630068907 -13.852634514760512 -0.2699161911780278
20.12877809488339 -13.671273800721542 -0.2597808286940688
20.539499585639092 -13.381112028507358 -0.24407450569328026
18.958191460001352 -14.488355360324137 -0.3037961705618716
19.20632199747127 -14.302393751246731 -0.29466648350809443
19.628293220742734 -14.01131451546297 -0.27882082102757066
18.296578910678843 -14.944014277203895 -0.3281451885277973
18.710299077243278 -14.651126888783727 -0.31302863795038494
18.957429635748237 -14.46813656904389 -0.30398901328932904
17.378895945179245 -15.58404138081661 -0.36115787521397513
17.81355204425456 -15.285669311526384 -0.34558432387939253
18.052199583239886 -15.111763163138255 -0.33704766284358456
16.469968705278337 -16.225685355174402 -0.3929474135568496
16.87403891074294 -15.932153816462739 -0.3789962475340418
17.146016929499762 -15.748563247461169 -0.36939014143472715
15.558338050272798 -16.859604900055523 -0.4240611725262424
15.950336864726282 -16.575731386400424 -0.41089534265661276
16.261597601450273 -16.359741023587826 -0.4002462080807434
14.653553082248566 -17.484790890486362 -0.4541099293686577
15.028570416941891 -17.219216897930927 -0.44182251598371614
15.315110706905266 -17.017702891496324 -0.4323293873675591
13.762464080528659 -18.105465264148492 -0.4827896901673723
14.120244418948754 -17.864299522319893 -0.47128398899538637
14.43409641346309 -17.635454604010032 -0.4612785694496062
12.850901210409143 -18.737564295543773 -0.5112599181659798
13.165767937492966 -18.510992460126396 -0.5016166135797524
13.516433918092812 -18.267299865175026 -0.4906627373636129
11.935186175627113 -19.369838434592513 -0.5389773001914737
12.259721340988133 -19.144852435507723 -0.5292609635796024
12.63072208316808 -18.88699430163275 -0.5180375403015187
11.029209548550085 -20.021297976120284 -0.5651713092181215
11.33657493073187 -19.80477943035577 -0.5563215962893941
11.72932196247297 -19.515849673186228 -0.5450313744104711
10.13899065549226 -20.622026735438666 -0.5905313469027361
10.42538216015245 -20.425703626054137 -0.5824949614868146
10.817151511256814 -20.155190749443214 -0.5713989521161926
9.484132057007054 -21.09220381658553 -0.6082694174985726
9.905454317436858 -20.786052767491817 -0.5969526050097078
4.660582354659918 -24.65590129692344 -0.7239640174393805
4.8607854980319365 -24.445235115721566 -0.7205151671377112
4.071729950426973 -25.00669696179721 -0.7378039110389673
4.436346416518616 -24.6795555043338 -0.7308618708036185
4.697952360786152 -24.426498893884247 -0.7260821856581046
3.5847261637850605 -25.205579447204403 -0.7503816001925958
28.007416865788795 -8.160096986222058 0.064294573091769
27.09702317408178 -8.801334278169993 0.024776099441656818
27.513820163472882 -8.506017690145775 0.04280625978069441
27.771609603133296 -8.327771692383418 0.05401500093812128
26.214545328615365 -9.426286904811349 -0.01306843811236158
26.594634021627726 -9.156313019428067 0.00317330005355565
26.891268856968093 -8.939739796932235 0.015885426450573226
25.903364555166608 -9.651267243201826 -0.026287807890041925
25.980592693839252 -9.582389588035074 -0.02306021457464702
25.048851133006423 -10.404653406892857 0.9232759142177791
25.26590412394885 -10.208106114748643 0.9366379857070326
25.67738300145678 -9.9073747502055 0.9634447004720643
24.120332951236875 -11.040125478208413 0.863707352144996
24.366333839486945 -10.851105673391361 0.8789495288189948
24.835114949378777 -10.528189605195873 0.9090076232417434
23.247184069196226 -11.690451603878365 0.8104072934345128
23.485240232362443 -11.462985946393484 0.8237538939380169
23.846069293564163 -11.22232014333685 0.8463419935374015
22.55737301402369 -12.134856895559611 0.7680644096425686
22.964859021526983 -11.810320136717273 0.7916400454674646
23.19262847381934 -11.598382653036552 0.8043591404651416
21.418496460571227 -12.97721315083513 0.7029976296652123
21.634953065553454 -12.763658319227714 0.713842526912543
22.05803089977852 -12.454691142479527 0.7379957606801417
22.293771446717333 -12.274752866958538 0.7514502374344394
20.71773878872334 -13.420036417921708 0.6627476666384149
21.106530218468965 -13.127831322056618 0.6837920814457386
21.417614018501116 -12.863509579327664 0.7001693830106195
19.818647922383693 -14.04709514087622 0.6143788913026493
20.220952232793895 -13.75426648555439 0.6354310874298885
20.52600766699032 -13.471072300219841 0.6500893081504657
18.950216983017373 -14.669163000949084 0.5702284565810416
19.281800149062345 -14.398320614229457 0.5858910702565683
19.64926049314434 -14.07919168788059 0.6031238217903139
18.00622059888778 -15.21070094268272 0.5205425420016465
18.382229316461384 -14.991261937225689 0.539981475238452
18.675009093587388 -14.794783378825056 0.5545584235893117
17.099688486493267 -15.853408851624712 0.47892016297875184
17.39482719440994 -15.637496548226755 0.4920065771454807
17.80148860550984 -15.348239821778671 0.510702903643306
16.218265096195378 -16.460189840282098 0.4402629509913414
16.455302137070223 -16.28696582133418 0.45010771073590616
16.889824637595872 -15.98426758335484 0.46907409123807886
15.312154475228006 -17.10575271872621 0.4038206720146611
15.558783377653139 -16.917359991144135 0.413051150950309
15.972085139943623 -16.622845532205233 0.42968154710065987
16.21957404148085 -16.437032819071977 0.439557388865341
14.639582870602153 -17.55065303065459 0.377247812526617
15.075042023393753 -17.252000438875317 0.39392264769723573
15.313678894594144 -17.08124682039273 0.4030383356960918
13.729531859401714 -18.18880880810795 0.344912996270879
14.134876279938327 -17.900478934038716 0.3588314603236302
14.429358252925866 -17.688005004971608 0.3691377928721611
12.82454648840605 -18.80872346294961 0.3148636993479679
13.211344639823302 -18.54189951339449 0.32732247912125834
13.521027893260438 -18.32510264900213 0.33748072278907437
11.913954427235218 -19.451390839952378 0.2881219583004957
12.266211764419232 -19.216009960457026 0.2987131957499596
12.573086960796564 -18.980383250978445 0.3069599585499998
11.022673433375681 -20.067283333582598 0.26404603320593467
11.357775233331484 -19.832607517416175 0.2726771157856327
11.693766372424808 -19.596642682795306 0.2816417121020187
10.11188314094711 -20.70756048908472 0.24259422110943252
10.426388760827534 -20.478939056512132 0.24938774515628404
10.775847836403983 -20.234949214544635 0.2577097029559843
9.522075865603863 -21.122338692845045 0.2301624143984009
9.89247360915673 -20.857888963618016 0.23766079405927698
5.409506612080867 -24.22779993921524 0.18338253906873647
4.694367379778112 -24.621841364807 0.17321233348207565
4.987951340829941 -24.41016670505099 0.17483539626100608
5.32855940219642 -24.238987119753673 0.18055738053626214
4.102848148112683 -25.015002239573008 0.16903689733880167
4.616843278551079 -24.59852290182227 0.1689651437923272
4.697391228293741 -24.476996802524518 0.1662836981215261
3.566415198430136 -25.537956779097232 0.17417316105599223
27.73470516488433 -8.529880818648126 1.1040773089302092
28.05464396068536 -8.27991114277889 1.126117025664183
26.80370185499526 -9.134132512036967 1.0392930322330556
27.18247363817267 -8.883410187433633 1.0654291937017017
27.479229205775706 -8.680228065283393 1.085967165014086
25.945364432756666 -9.754092159250693 0.9817754260042464
26.16589545881724 -9.580306157211652 0.9962112939849819
26.565473079697483 -9.313936924710758 1.0233090978136934
25.791599162811902 -9.888439984341025 0.9719984686532603
5.538504813853006 -24.066087580024885 1.0692740122932478
4.544786731978973 -24.768704307803013 1.0783816859609927
5.187094582714228 -24.382104598369494 1.0775551713898461
5.219825217402235 -24.17843109988533 1.0623982309828373
4.513342732632659 -24.67320705683738 1.0689524593396516
5.336133308585465 -24.26205732542877 1.9740272814692021
5.331832800585973 -24.26316269947122 1.9739014714038223
17.715391904235002 -15.701709142551016 3.1367906776878245
18.013257496275994 -15.471225040067974 3.158453588067256
18.324119559310702 -15.258960756802205 3.1846419356244278
16.813757747993876 -16.35253875875019 3.0717588645513487
17.13525855519281 -16.078226503448953 3.089719350098007
17.502978932812308 -15.805066701377514 3.1157156200265295
15.931760276084717 -16.966602800799112 3.0131100623680673
16.18564995609323 -16.73795456084393 3.02360873456701
16.578823263498972 -16.455985611078944 3.0490007734058153
14.985797587089738 -17.621369869393096 2.9579773171690418
15.28736232361183 -17.367778876799218 2.9695456189917575
15.664724605406203 -17.079297672468332 2.9886122209060897
15.912204185425672 -16.86551990872746 2.999145770176323
14.085337878729664 -18.26595996193307 2.916062923084893
14.36158957130651 -18.022861407393233 2.922710941677159
14.735829680052715 -17.732142871261566 2.9375873690938734
15.008340103168 -17.52763487470834 2.950114973929886
13.198397458701955 -18.87363682993383 2.879275763840689
13.438616505034409 -18.658412714498773 2.8822491197789715
13.867178557915881 -18.359748544898938 2.8995850301524477
14.129028068661837 -18.126011389099055 2.9048034536056484
12.527795791327446 -19.284041894796722 2.850310192759684
12.915659828800727 -19.011346164938537 2.862138974923396
13.210213256632484 -18.756375262935684 2.86607901481813
11.608708723841213 -19.950919511933947 2.8310202531114372
12.003076419713587 -19.64783299699367 2.83605031906675
12.30430135897549 -19.40415770353119 2.8393646395514995
10.70993752634719 -20.575508944948908 2.8166368410043265
11.07414416787771 -20.303261775856644 2.81897388599896
11.386227228013686 -20.058310544744792 2.8203942321414788
9.765166737587162 -21.237622207103918 2.8107399749814057
10.16911599892533 -20.916655048824268 2.8070156384993927
10.497164356650497 -20.664462547538335 2.8063004712341995
9.556542141738642 -21.485761823131266 2.824838249175489
9.591743185013335 -21.29599277657242 2.801709461259181
