# .PCD v0.7 - Point Cloud Data file format
VERSION 0.7
FIELDS x y z
SIZE 4 4 4
TYPE F F F
COUNT 1 1 1
WIDTH 469
HEIGHT 1
VIEWPOINT 0 0 0 2.98023e-07 1 0 -0
POINTS 469
DATA ascii
-5.742085808343429 19.17157283411561 -1.6979371737041637
-5.450225034358414 19.376632836470975 -1.691323132230899
-5.0978262227949225 19.63457700454067 -1.6835977163828142
-6.651895175752043 18.53145073664335 -1.7192239673390328
-6.353405834891178 18.74346600328537 -1.7121676359409084
-5.948305900789652 19.034690142110698 -1.7027999020842008
-7.5352470008923325 17.912690862749816 -1.7409171402622823
-7.254286722348834 18.117935942294128 -1.734039579935519
-6.85854650156977 18.39240472091669 -1.7242986306598667
-8.43897768499705 17.27877855737848 -1.764154431032938
-8.192071301709545 17.464101295140033 -1.757871040702898
-7.785065373522997 17.749492626820285 -1.7474073865577069
-9.120444511430055 16.792906744049912 -1.7823154749502899
-8.688989937995336 17.118303086726254 -1.7709842367203295
-8.43958512420619 17.301987588894622 -1.7644878289219803
-10.03494029731165 16.20744089715922 -1.8085383944550706
-9.608259402215332 16.48439263919271 -1.7962126433588104
-9.32268989465874 16.69643667024294 -1.788436742769396
-10.978845553949345 15.6223922053929 -1.8370014669855164
-10.584343228694943 15.882606046559118 -1.8251619284871037
-10.265357262581292 16.126108742188222 -1.8161381132378773
-11.778838524189775 14.907235939062714 -1.8595427083054803
-11.500925707899494 15.222810031323364 -1.8523781263296077
-11.145623139240605 15.501396857924341 -1.8419490931358358
-11.986902147541874 14.815744425286708 -1.866645862851223
-13.520046012270608 13.631960193735011 -1.9152319495013743
-3.936981554021607 20.456902289827575 -0.9500593330786269
-3.6697000114430365 20.64614799643527 -0.9393246331954905
-4.852700824337869 19.82014212749299 -0.986031621847821
-4.54701267781474 20.033213673148314 -0.974104430094624
-4.157811721829276 20.305827617385322 -0.9587644269087549
-5.764661776354283 19.177645707263522 -1.0210972370190075
-5.470932801503759 19.388857899996356 -1.009813150395046
-5.090973342521968 19.65772722453103 -0.9951717780404222
-6.649354221371052 18.5687075033599 -1.0539038892417487
-6.375687930991011 18.74994814833874 -1.0439833425182379
-5.970798060878987 19.041266782954178 -1.0287106942058868
-7.552849889108131 17.93042636106295 -1.0867172646613563
-7.303904530291852 18.11915388751473 -1.0775276093323858
-6.880873749017258 18.403904805009514 -1.0624254763868697
-8.457328607190403 17.287074860523536 -1.1185777730732116
-8.1807380661078 17.4828725746011 -1.1089565812117566
-7.800497654514089 17.758361726185555 -1.095462692096619
-7.554962358484511 17.94908583651973 -1.086413110649093
-9.139841435780886 16.820986808985023 -1.1415204622205741
-8.737277443613282 17.117976587764222 -1.1276510946650273
-8.457887021582497 17.305174117874767 -1.1182558330403882
-10.251306725573475 15.946063783767103 -1.1795674249449222
-10.046861183689007 16.131496401466304 -1.1722686207221853
-9.65047596453329 16.476411173781234 -1.1582003237275234
-9.364642572426135 16.673156429824992 -1.14884875308212
-11.172300971444116 15.2958822803464 -1.208391077255803
-10.89364065257435 15.4911493063893 -1.199808913172668
-10.500965186517814 15.783833031093367 -1.1872478332775227
-10.267071013886733 15.983259969986372 -1.1792263101659455
-12.077834810957196 14.653115910007731 -1.235592284231732
-11.82909115042843 14.839865192647675 -1.2280605101000175
-11.423885499814261 15.12374752823001 -1.2159481053759444
-12.984134393638795 14.004798396364329 -1.2617072956292368
-12.737620678983365 14.194918570283992 -1.2544939829312989
-12.323588045240882 14.48453638536784 -1.2426643530121866
-12.076796979085616 14.675552156714883 -1.2352083545841182
-13.463523171182612 13.694043169229793 -1.2745540839161857
-13.25547536121914 13.861389764240476 -1.2685039276340835
-12.984033675986035 14.03809742071031 -1.2611858891940433
-14.169919099988794 13.443851709422246 -1.2898800472092604
-6.6433675402525685 18.514103016624485 -0.3904044629765102
-6.494075953362546 18.61911092598326 -0.38292806542336977
-7.670669223121083 17.72152088197132 -0.4431071044835948
-7.293767590497441 18.073540924576413 -0.4210702797428001
-6.884124754601676 18.354362209726084 -0.4017667040308879
-8.444440582839768 17.13709187898302 -0.4793190576166151
-8.166036985728049 17.40389691588168 -0.46368509904436517
-7.79942247281079 17.696460165707688 -0.4455959316244196
-9.384596689541867 16.499671194287245 -0.5163076829359949
-9.08508640063343 16.777342864594406 -0.5012070395086193
-8.732021409360156 17.03551499527242 -0.48634423861586373
-10.20607122672109 15.928931444633818 -0.5462896641570807
-10.00250836099208 16.121578866410008 -0.5366466109384304
-9.623160343897759 16.44523313209249 -0.5198843060052094
-10.956980137998967 15.51416336759151 -0.5662055297915111
-10.535747081927031 15.806444371074678 -0.5524826249189583
-10.286129502811596 15.991392281608379 -0.5434630024693263
-11.867169870572377 14.876409671656463 -0.5935506443173546
-11.47675319841981 15.153243554958513 -0.5821041277413623
-11.19171417608061 15.3512925783619 -0.5735549909453326
-12.781500063541081 14.24877772100239 -0.6168908252779411
-12.372973723202882 14.528331266590895 -0.6069206643150634
-12.074679561081947 14.741334244342463 -0.5988579928432318
-13.26524790622306 13.920211561244937 -0.6276704412016637
-12.990247156089147 14.103945696513462 -0.6218036980137756
-14.185028131739712 13.25355468293546 -0.6471876100111003
-3.9628718694066967 20.39020503499462 -0.24474340823671725
-3.591942756056031 20.64926344050996 -0.22273332624345432
-3.2859981426540386 20.870357510906576 -0.2039058000116285
-4.853009802659385 19.768615066899677 -0.2957457870499336
-4.497380983285461 20.014380320957745 -0.2757941396850663
-4.183930619920782 20.241524836324782 -0.25733800323172895
-5.762866295411189 19.13188255915147 -0.34522682388338266
-5.442987132152228 19.362642952929512 -0.3277610573842338
-5.091164404599933 19.602616906848095 -0.30893489093867754
-6.305653405886113 18.754052442777933 -0.37324406776424657
-5.9827321674857155 18.982612459263656 -0.3565023493610988
-2.3975485850027236 21.41700442409661 0.5869266158687236
-2.148788718028399 21.607338646159782 0.609825051349882
-1.7470800538471032 21.88926001906027 0.6450511963507091
-3.0770166444455844 20.952560803879983 0.5309389254235339
-2.6446983050815893 21.25607879207064 0.567048005092539
-2.3957321634240265 21.442478317685378 0.5892573493941502
-3.976290666575282 20.332308900280765 0.45972063261844576
-3.5582235363870236 20.624243144246922 0.492641614770021
-3.2886597431400966 20.822790172258905 0.5152285976846858
-4.858658587263741 19.71205578756343 0.39289428602053333
-4.479704525841965 19.98187798779178 0.4214027220855725
-4.183087275916055 20.193812501499735 0.4442618291416278
-5.787371066095815 19.06833016619626 0.328043312391739
-5.4104684532475895 19.330788637276957 0.3538957531480491
-5.0964756587429525 19.555752193112788 0.3765471389660431
-6.697879807014122 18.43067398164811 0.268872405512282
-6.322845559536268 18.693474484611826 0.292676036078801
-6.010195914010235 18.921943322871165 0.3139301626643225
-7.590270819366874 17.81493529450902 0.21670154792967256
-7.250645490720881 18.060204571196397 0.2369347340285588
-6.917554957940275 18.28356604414804 0.2559363928341971
-8.49944442298038 17.180075812045413 0.16829109529098152
-8.184654317320732 17.40292517002925 0.18471879326938123
-7.811848571892446 17.673406073269454 0.2055046906439142
-9.417005809133707 16.548514840256708 0.12587716470696497
-9.087488672339473 16.762851606314435 0.139492400479313
-8.732135250146872 16.99392682847891 0.15487620759218812
-10.326900109484171 15.905177560489294 0.0883044264845565
-10.032070858530162 16.12492900524406 0.10077120137665996
-9.626998246244094 16.413981958479553 0.1178316081157531
-11.23275118251624 15.256082984744731 0.05617145414436364
-10.9398270298057 15.483773441556732 0.06730498901011339
-10.53577751944639 15.770745396198663 0.08158125323290544
-12.114026693312333 14.649708304941257 0.032457752070564005
-11.866418545139165 14.840211401686311 0.040069178786274584
-11.451053389745203 15.126191619428365 0.0513245784720191
-11.21258268370029 15.328181618920008 0.06111373113081697
-12.78902959880624 14.214437809191192 0.020075259543976376
-12.39442659885112 14.484149087279471 0.02805064458417883
-12.11578819054197 14.681247437238127 0.03475182738111959
-13.276894522166513 13.886721285731943 0.012086662613523202
-12.995723771453774 14.078504447410001 0.016653998590088204
-14.354214805913886 13.164155583643064 0.00022362075320359054
-4.225396257126539 20.092967818130884 1.1397903323401142
-3.9592309146017652 20.270681992094943 1.1644138264865775
-3.60553131086329 20.519727560833918 1.199359644373223
-5.128257454973636 19.453966364459877 1.0561359346014867
-4.90059725125578 19.62286681978653 1.0776596867779422
-4.474786707437615 19.920189342016627 1.116589137428773
-6.030398979712188 18.802765752047463 0.9775251830150591
-5.788127256435981 18.995642755598155 1.0002100999973682
-5.375487764127983 19.289302403740045 1.0356525587324446
-5.123478384747993 19.483810007155462 1.059799236859945
-6.706363588710371 18.362609259584236 0.9289545760102507
-6.3117286384648965 18.637556022426278 0.9590566737731345
-6.031416808988158 18.835147450781864 0.9814292085835534
-7.620513617816663 17.739371654357058 0.8662080702457464
-7.193186898135666 18.029183760647843 0.8944372593922241
-6.91600147810113 18.22913986833751 0.9149581829025308
-8.760112386878882 16.806414127532996 0.7810221549465153
-8.550247219969918 17.07983693041902 0.8073322594562797
-8.15199149062132 17.36622791469762 0.8320262779263561
-7.832701641116663 17.605133256488845 0.8539289263398135
-9.415534842495397 16.496039637439875 0.7633887424062977
-9.036932370687207 16.728389949010015 0.7791674417442733
-8.695442339790775 16.9716391945225 0.7982683979329126
-10.322309693681962 15.846324179446153 0.7210954038717217
-10.008252330774576 16.08191925335841 0.7359959070946771
-9.636293565230067 16.350386364033753 0.7537045466587253
-11.230004205980142 15.202540294007562 0.6878387241335673
-10.915721207360411 15.432946914452534 0.6992651857414682
-10.542068224171773 15.699411459030602 0.7132468949693873
-12.146451109659386 14.570954860771844 0.6645851973392047
-11.83904855746776 14.78802097085796 0.6720305829449129
-11.450642496344003 15.054112238956852 0.6818449074341357
-13.061313840632133 13.94077405067663 0.6497814892534979
-12.774202016132136 14.154723095024485 0.6551504472689271
-12.357897039173704 14.44012302493459 0.6619307165443873
-13.23722085868587 13.84757256194733 0.6505074921077847
-1.572003374748905 21.943853932273054 1.416059590462798
-2.3937688128190806 21.3518597831756 1.3232023207325692
-2.119471018667281 21.553195020619416 1.3542273718169566
-1.7369683065804682 21.819218401992167 1.3963691382308108
-3.342454061397861 20.695569256306662 1.2247967540593536
-3.049458034015648 20.907720018215038 1.2557684979429036
-2.6700861188145173 21.17402205140303 1.2956106913384584
-3.451150298146079 20.636067970151068 1.2158649477126358
-6.954976256052458 18.128939270500418 1.5696415184242354
-6.686896628359493 18.320561169844286 1.5935274618573625
-6.407810898136111 18.506416545676796 1.616975733069721
-7.612476887974505 17.67791613122056 1.5178221030064156
-7.199551276029551 17.968965271566564 1.5510042399500277
-6.954071952797133 18.153545597033883 1.573370361462083
-8.784923646899584 16.756503980120797 1.4210395681603414
-8.492743349432097 17.060152859236503 1.4543940175041041
-8.10582376039936 17.344366759343053 1.4829848978214732
-7.8589463081168685 17.513828619208933 1.500344975303817
-9.440877982234591 16.404965977181778 1.3983353258891618
-9.047917288514226 16.674716955472384 1.4199617739174695
-8.746621193072908 16.875238954252225 1.4368061650244126
-10.355462751650096 15.775120987308437 1.355377609251362
-9.940598446595422 16.05971715474162 1.3734355058037107
-9.647342721534955 16.266538662401512 1.3881535610437274
-11.257127915325114 15.144033845343401 1.322264065557062
-10.881704637140798 15.411686767962346 1.3354837751063497
-10.567426339235434 15.638956828337946 1.3482780695858096
-12.146911371254198 14.520107642828544 1.299875733705473
-11.789097800992256 14.763189374757328 1.3066997893963523
-11.475498952871645 14.995733351865722 1.3164310696193042
-13.058551956423324 13.886525209992591 1.2883313441374802
-12.742967074940086 14.113648713749424 1.2921554354530467
-12.385697597997167 14.355908873502294 1.2960374517237354
-13.231839631274116 13.782931272674663 1.2893290971857287
-1.5823629938990802 21.850192532169054 2.1690219563533066
-2.4796625773369465 21.23386222902514 2.051201591455218
-2.075646449907924 21.520819686727307 2.1050217608865083
-1.7610108020621706 21.741034291010052 2.1472238307633327
-3.3417711869782183 20.642770515686447 1.944471441276916
-2.972732024130024 20.894232831313364 1.9891774087914627
-2.655268007577281 21.121782310073932 2.0302702661269385
-4.248131188489259 20.005788698352703 1.837011067220851
-3.9151428504438055 20.250407477048615 1.877349812894677
-3.5770958460957103 20.48430955751501 1.9169523308481855
-5.16175332797091 19.37596606915594 1.7386739115730672
-4.865737058800805 19.5859940216347 1.7706238798215774
-4.459458827979726 19.87018806334448 1.8151395439002642
-6.074020040704245 18.73250748942069 1.6468508706189375
-5.776436778184035 18.94866490694544 1.6768810879120366
-5.398034562867526 19.218903616488625 1.7155829930071334
-6.225870066217063 18.63637411039328 1.634174191977869
-10.360849205686037 15.736086840924234 1.9965316346388944
-9.974421325506219 15.989355742548486 2.012252245206784
-11.270659069684172 15.097049248250183 1.961627135135482
-10.865200693474947 15.387345609898611 1.9764743912777498
-10.567470565149332 15.603024758378462 1.9893480338807805
-12.175998405807709 14.476692740882543 1.9425156115345743
-11.785611695570246 14.748237006604016 1.9498625850827045
-11.480304911406343 14.961525479209024 1.9572571097476343
-12.531453593387662 14.206868246171403 1.9345428958669704
-12.358343029002992 14.348988716293443 1.9397851417150838
-3.377746704706977 20.575281345288126 2.6653343675398395
-3.0626863720150985 20.789588272658257 2.709693197541861
-4.278165329433282 19.951063919182314 2.5424063509235038
-3.896623785726986 20.21728458084629 2.593733414179648
-3.5902569379498046 20.442129361160053 2.638243140789554
-5.166935960700707 19.337518730414512 2.4310463501038777
-4.852535940217375 19.56363415922862 2.4711422696641123
-4.495824081547632 19.805429067475124 2.5151267957583423
-6.052092415564642 18.71302406499005 2.327590190180275
-5.78025772994333 18.91026660667522 2.3593955253694587
-5.38778491425514 19.190833074960498 2.4060322575443123
-6.994822015502167 18.074221025434287 2.2340234480527053
-6.696301059819248 18.281181713293833 2.2633041172100246
-6.321271247556399 18.53631320829984 2.300741132356813
-7.900635020132344 17.428596461431642 2.1501667844981593
-7.583257735673546 17.66572508690436 2.1802832540826014
-7.200830384018175 17.934527571757236 2.215306228313638
-8.791322486450257 16.75843176545583 2.0735022273154207
-8.541731937958154 16.994916104734294 2.1025406314838446
-8.126218753872788 17.29399713719202 2.1360391124235925
-9.45288852854283 16.380218688042557 2.0457309715895304
-9.028267747061612 16.657436485154683 2.068979623803974
-10.295741705335962 15.80814907789838 2.0039267863896404
-9.956006663236016 16.033236050024048 2.0185667951467665
-9.662624016391439 16.250439147245743 2.036371687914234
-12.169336271639896 14.51214510415447 1.9473670708475508
-11.931778186760608 14.693850481924455 1.954211345736844
-13.08961372964514 13.84350658062601 1.9353015354061252
-12.745808892538504 14.097035005546134 1.9388521545590378
-12.40199293960043 14.338950793969449 1.9423693425708999
-13.262236913832666 13.790076655841647 1.944990161191937
6.465807639709106 27.40406682295123 3.4543544082077133
6.737347786925812 27.579394372579205 3.5010514861203426
0.8358342038588674 23.452354102504646 3.340814742401017
-0.010414777830690336 22.883196229776008 3.1942127948287453
0.26181313558410546 23.076916808003872 3.242918472659361
0.6608217601568606 23.353699596335765 3.3138263766593425
-0.8868905695209706 22.282265508665645 3.0462949633778864
-0.6265093561928567 22.47395476362904 3.092193707596638
-0.21613843124082188 22.753727937639972 3.161252289131074
-1.5241084240829403 21.862899283856734 2.9465383873599604
-1.1461959127562809 22.119266992967933 3.0068056555908385
-0.8864398648543079 22.30538403441633 3.0508621354031433
-2.4646001782691567 21.203313271288245 2.7982343581868534
-2.070039630477289 21.48523049231566 2.860415596776928
-1.7626283116102237 21.7135135245224 2.9115566793622625
-2.8836233107063673 20.925931783644618 2.7382378176881828
-2.6716928267017415 21.0655251681219 2.768174655339849
-5.170520994415003 19.265927605215143 3.1225696822714664
-4.890451616904454 19.46215383525247 3.1620191846313626
-6.099773812627783 18.631600259832364 3.0039950779671027
-5.756972173002115 18.875452414365828 3.0484584101813406
-5.412864657413861 19.126073799505605 3.0961288480890055
-6.980622643011781 18.024521966105393 2.903113404243644
-6.647881913586726 18.251332849950042 2.939294824139113
-6.320342463667575 18.48553208817332 2.978847500340054
-7.8982786057435215 17.378950842347233 2.809219082717993
-7.587198332110003 17.61244267593068 2.842702117433311
-7.210940197397027 17.873074388287836 2.8805146588889965
-8.761258118673364 16.741736746626167 2.728271438978082
-8.504866227810211 16.96636029032105 2.758452242098784
-8.145705845894952 17.232103274626766 2.7923572213545924
-9.72761787207577 16.11195389402925 2.671511156402927
-9.440897443274908 16.33131335495297 2.6934335649472416
-9.054129757258053 16.60055954328757 2.7197389779085874
-10.608448238152647 15.508516676033716 2.6287648351831483
-10.357338641293783 15.694905484348734 2.642451333466
-9.949749209535076 15.973187566062187 2.662182994835015
-11.510415381386979 14.86187379477931 2.594745520813213
-11.269640828913829 15.057945469174117 2.6069023293640785
-10.855769941643054 15.34757923271412 2.621201752022519
-10.608106154351791 15.536265548674889 2.634199215580878
-12.188750651218175 14.421466423771498 2.5881121744840927
-11.782864659984803 14.705288541042478 2.594977169829307
-11.513057268489494 14.89788846847835 2.6018407668194614
-13.071276638914277 13.818140948528761 2.58639685649616
-12.695264508504652 14.07769296404528 2.585871445820633
-12.396931183317445 14.29074985374101 2.5884042740217286
-13.248373173661081 13.74594958731084 2.5961357524843156
7.922071760368083 28.38945570455634 3.7145822777654756
8.083608188874734 28.433370014375043 3.7338276880921395
7.2702414300279505 27.948174411281883 3.5972269253971003
7.662041221393747 28.217634505952095 3.6682623062243733
6.901736637406978 27.698700509006173 3.5314610654729286
7.020394865120953 27.778195137090343 3.5524656496741933
3.6123114821511586 25.392124263352752 3.871592220057277
3.844638856586196 25.544853342083478 3.9163011753154287
2.72487467199 24.78166601327026 3.6984156570470885
3.0768399990113693 25.01853817295231 3.7655538020155284
3.383422007805669 25.2365124829978 3.8268307945218014
1.8133037321608505 24.148947181950007 3.524539435137565
2.1217626750939895 24.3714525629508 3.584445241669415
2.482013388573978 24.61518272417574 3.6519763390382805
0.9370814195855016 23.528987084250392 3.3604156663511935
1.2088717829400393 23.72928351836913 3.41236162248887
1.577035889105411 23.987712509017957 3.480926138395576
0.8329521317262681 23.475462849352525 3.345223521941092
-1.8270111568555771 21.576495337708547 3.6576573412752484
-1.537470999067559 21.780517545401 3.711666992811117
-1.2288794686889162 21.992821049193278 3.768893302925423
-2.7097745530453348 20.9650843074693 3.501841072752332
-2.4665451417065087 21.143682963444682 3.5462821949812655
-2.0176785828612904 21.451337146744756 3.6249152175396375
-3.6139553181786526 20.3202775377984 3.3480519231672154
-3.336207556978418 20.542965734610387 3.3999598907911084
-2.957539155342165 20.803830851416343 3.4623195587990354
-2.7136368377024254 20.98705351123723 3.506913127073891
-4.287716366934188 19.885616742269043 3.251271396165813
-3.919351267917465 20.142002585684953 3.3078057581708293
-3.612451477112971 20.3552962770709 3.356158628086847
-4.724319358299154 19.58366076234677 3.18719390094837
-4.495854002768324 19.748740077174986 3.2219355041925777
-7.015817904889851 17.922037491089018 3.5685049803085898
-6.718776736043812 18.12629405983587 3.604423561956426
-7.903393226575931 17.313613361607445 3.4718644184552314
-7.515688672676264 17.579522948717035 3.512258827827801
-7.224202319919416 17.786520724219173 3.546154934054269
-8.798960139041059 16.655203314950437 3.3800522811473313
-8.436901224148956 16.931291555620493 3.4176240011941186
-8.138812467843401 17.154937377139408 3.44961473362695
-9.721332830497756 16.04782289373424 3.320642139780367
-9.434751165733761 16.253104607741925 3.341291914598857
-9.0479566296214 16.5169845813497 3.3684256270640223
-10.629457226076621 15.408024607075301 3.270377392041037
-10.314120490205749 15.636050138701124 3.2872488352844336
-9.943252184207681 15.896576596962435 3.307859597664126
-11.545537845671026 14.7746209825814 3.240977929199346
-11.219206643228727 15.002701083788152 3.2500400844028094
-10.849856868386146 15.2607670367143 3.2627793852539515
-12.457948971916288 14.137166595960087 3.2287438735860796
-12.160385417244107 14.349212446816853 3.2317044207139274
-11.780074330061941 14.618061128917924 3.23769753209662
-13.065655656348959 13.747400027837893 3.2378415635299795
-12.66455752670774 14.011297318764754 3.2324152205257244
-13.275656519859306 13.73407906438053 3.2667613549829966
6.090019170887845 27.083397943300074 4.375101180111903
6.308530325812999 27.236769139773248 4.421755371147448
6.6933884290212315 27.49855409325919 4.502775642969348
5.438374423558589 26.638153567519712 4.239684914366916
5.827915500857497 26.908216429086337 4.3211691295407855
6.094422400409202 27.109347344661842 4.380400605363596
4.393289464765742 25.91854095804526 4.025616863890249
4.975581393108531 26.326528637182975 4.145575882402679
5.192653309899242 26.473727586184715 4.189743454023485
4.065227780951208 25.7023563708053 3.96147687405346
4.307514549135596 25.867002964192896 4.009742692248081
1.6883446377654834 23.984192873170777 4.354315042103701
0.8816124085826617 23.430159720808184 4.183731992128271
1.2493914509040893 23.686393976138433 4.261703248177953
1.539977518666463 23.896658535378144 4.325869208912837
0.01639687945600976 22.841670147420484 4.008543536726522
0.3274898578747837 23.053532780919497 4.070883974787705
0.6624012075434104 23.28188344056251 4.138868947664861
-0.8858870092424931 22.213315062899493 3.8301774187415125
-0.5967218316531603 22.422417431378513 3.8883087355637924
-0.22921519315902805 22.677590834071335 3.960816579832681
-1.0778567042695197 22.10701954084699 3.799726687645581
-2.8145379341281993 20.809845692654243 4.225452592453612
-3.6537187326556926 20.24457087873035 4.073574364828459
-3.3693419990246074 20.440296274782334 4.125087348987985
-2.9473232602795267 20.731458153481245 4.203749435325483
-4.53492693269398 19.633851361430466 3.921424019657871
-4.24289706297558 19.836432074992533 3.9706307575545248
-3.8602793514615645 20.10796177768324 4.038639034563453
-5.437081706111765 19.00530267630322 3.778419379100983
-5.189020932375185 19.187138109320056 3.8188150383433817
-4.80335836987762 19.453806110406678 3.879364371158206
-6.096911361417203 18.547391471331764 3.6836866381536977
-5.678963060920718 18.839689864887426 3.7434103846630933
-5.437667650482384 19.023223241047592 3.7831569917621444
-6.555408111410448 18.247905165084696 3.6273765973374568
-6.3396627612449175 18.385912560726144 3.6525280583229636
7.9117156605887855 28.317073406287438 4.761360698758893
8.153293508771887 28.430085931126314 4.804094274508695
6.968772448295417 27.681232941763373 4.560248186323825
7.270745335506823 27.89209040716153 4.625670169722706
7.674242948704712 28.16567140752073 4.712044752136015
6.859865392697257 27.616960543522552 4.538996663012715
4.243314150346695 25.717498338328845 4.923152385435012
4.309068403340456 25.78470043083931 4.943571863259306
3.3585053420752424 25.110273848679277 4.719255152502601
3.6092314349653454 25.30556536294236 4.781886367603903
4.00227428871812 25.57808031218266 4.873108204165348
2.7169558613528353 24.694385684217284 4.580481788305361
3.148831658904172 24.988164596886147 4.676795505511143
3.362206968809916 25.143851665104545 4.727239926493041
1.853507009956577 24.099339648100262 4.390338082740341
2.1961469600598824 24.34098355335374 4.4664089576872215
2.485350697568173 24.547040860763865 4.531715067882091
-0.09244732755136542 22.680864545653755 4.795649514361577
-0.9801866604409049 22.077621214550415 4.601163382547135
-0.5350959423159152 22.381688090657768 4.697990799714302
-0.24292167641782547 22.58639198405084 4.764119285446165
-1.8273797122271382 21.49831180702383 4.423680555700647
-1.4970571909925043 21.723338038593802 4.491615118355475
-1.1424422968952377 21.9747657348639 4.568632844681655
-2.701691476151906 20.894050769215127 4.248913456863716
-2.40138161242405 21.106901661684546 4.309281721040604
-2.090191342395164 21.319397318367994 4.370758378897938
-2.810957348183505 20.836207325056485 4.232581285418094
6.059947734747244 26.972533628496375 5.358829366906419
6.377702653999517 27.202397618996493 5.439292094218399
6.679163390865418 27.42316382713974 5.516603977916918
5.144808531322504 26.35274661821803 5.139795755188556
5.423104005086435 26.545450126637 5.206916066540191
5.830656464345615 26.82207535533505 5.3046126293319595
4.428826403207459 25.866152745068785 4.971437652145457
4.966526826070261 26.23711781076055 5.09886722486356
2.39548910437922 24.377796175175803 5.388069555915547
1.5382711140476344 23.799840238437028 5.178763853409582
1.8023809994668207 23.982296285255423 5.243769550236439
2.2093569341221886 24.258246909733316 5.343700049268869
0.9109659135780991 23.368091028857204 5.027795255782103
1.3106819012347546 23.64502101503462 5.12407631424269
0.06012631921331224 22.78935815454224 4.83130327168
0.3870552959695047 23.011982097936794 4.906003534401719
0.6384092874478499 23.179711790866218 4.96313735122527
6.907368412789795 27.554614348583783 5.5674640176050945
7.027761343969018 27.726114147592845 5.617314220386292
6.772232308634943 27.518014458911196 5.546590782599382
3.3292196615916834 25.00728233639334 5.623526083607699
3.5748853580908695 25.209787485769652 5.696515823282989
2.4397197221135443 24.416995860082455 5.401568904618328
2.724665838718394 24.611930551697455 5.4735672221147205
3.111483916127853 24.865929461558537 5.569434857535665
2.385983692670516 24.38926829507594 5.390507429557675
