# .PCD v0.7 - Point Cloud Data file format
VERSION 0.7
FIELDS x y z
SIZE 4 4 4
TYPE F F F
COUNT 1 1 1
WIDTH 439
HEIGHT 1
VIEWPOINT 0 0 0 2.98023e-07 1 0 -0
POINTS 439
DATA ascii
-0.5524932709360839 18.92247265320527 -4.835570130568003
-0.8136089302431289 18.866885150977406 -4.832535603633784
-1.0299321988072823 18.848882619490986 -4.833266218369105
-5.955638151093411 18.528889932749095 -4.936940315127715
-6.083258764689576 18.52946759676193 -4.9424960194922285
-6.082143823294063 18.513439233267608 -4.940766485353093
-6.409094373697162 18.496369911363303 -4.953626897119382
-6.881545864121038 18.372897436290845 -4.962778379903547
-7.061484919695863 18.336768578388234 -4.967869514104607
-7.528123887099039 18.26230192526265 -4.983809751316871
-7.840492864180013 18.25052690947037 -4.999110168469183
-8.192719696044712 18.216828458828378 -5.015005181551864
-8.544819093358008 18.17772300945663 -5.031003007968125
-8.913882206129415 18.14334057869291 -5.049296617580747
-9.249525265938273 18.129210859909975 -5.068183827314418
-9.602024552545696 18.099169091372396 -5.087302746285989
-9.985411784841354 18.11451662191549 -5.113445325523799
-10.279253757726714 18.092025196764187 -5.130744939693792
-10.610736665312618 18.051009750939013 -5.1491168956532825
-10.687198515833895 17.933371021204508 -5.142937416377893
-10.714290847074032 17.93682083813694 -5.145179868220751
-0.9402468914506108 18.816866352460888 -4.828708028038813
-1.1415837675428855 18.805452166582803 -4.830129188264092
-1.4936729686513506 18.765305624109835 -4.831111966914794
-1.842385542851293 18.724574799540243 -4.832530109140202
-2.198308455829635 18.67838775747486 -4.834488611226547
-2.5498259693594156 18.66981994421318 -4.840931518374103
-2.5506853828218783 18.639489621621017 -4.837690273896099
-2.902784536404373 18.616342413064167 -4.843531466263899
-3.25791600291804 18.58777490650477 -4.849446599560866
-3.6091994673126675 18.558319612993188 -4.85610520513667
-3.96121492003975 18.52729128140987 -4.863213213990225
-4.313853055368856 18.51247703942451 -4.872998100819473
-4.6664167759676 18.49187174168242 -4.882757648344378
-4.9913892299473 18.481684835966252 -4.893485609913581
-5.37352399215367 18.44717607532045 -4.904372859245319
-5.743526255046152 18.432042124064118 -4.917809590746073
-6.934905887067486 18.286024606975545 -4.956320665927297
-7.019806681914228 18.26704448791504 -4.958505541331089
-14.625608950824969 17.713953687186986 -4.62174454677673
-14.934483983959453 17.675180334082455 -4.640442442793244
-15.205532509224561 17.65868571215487 -4.658097680301807
-0.5661933040112845 19.003162194251395 -4.119923586515988
-0.8361865506826187 18.935383387438886 -4.118701587913597
-1.1327112299917257 18.918009541385093 -4.1218414069482545
-1.5127996130566577 18.885604235335943 -4.125641254964325
-1.8662819630301786 18.855028954781876 -4.129701786152123
-2.259497742368885 18.81381167575274 -4.134338412461044
-2.570710575076628 18.794765024257643 -4.139444089968141
-2.923179225345693 18.76715023180817 -4.145322172998861
-3.2764127628846316 18.74318472550116 -4.151971942834467
-3.6293811837616525 18.71878797844523 -4.159188576553249
-3.982010143653679 18.688282513881987 -4.166431547801162
-4.333706296892856 18.65254020185526 -4.173898742492561
-4.68599991369348 18.64089157321635 -4.183541428884754
-5.05198200952172 18.576969685202112 -4.190536786192655
-5.390691405220778 18.577682882181396 -4.201673605179128
-5.747816193713977 18.546708862289535 -4.211824444734393
-6.095032713373982 18.55077789735293 -4.224512925048698
-6.451128958603078 18.520684953495902 -4.235752480997114
-6.8031292439716085 18.496326086428102 -4.247637255478952
-6.8044794162442495 18.476920373369108 -4.246332665525671
-7.1867442082542405 18.425040114083473 -4.2581971969540415
-7.543296229536164 18.384169047151907 -4.270240700997697
-7.8588910097455065 18.36750191275425 -4.282789325647304
-8.212183633635876 18.33656848653975 -4.296359224994411
-8.51711860439823 18.31740973041362 -4.309084994996766
-8.915898414480933 18.261589611781297 -4.324111981576794
-9.268805511550877 18.247434952417276 -4.340360859129858
-9.620580496083704 18.20946672040336 -4.355417833863378
-9.972983847854929 18.18385093066811 -4.371811715615294
-10.314529936591367 18.146485020864944 -4.3873327088732434
-10.6793194760001 18.130047702109618 -4.405925434750886
-11.031049399919826 18.098148679223467 -4.423284976059901
-11.35364306197257 18.082634417446005 -4.440455297471928
-11.768702415136833 17.959537875685207 -4.456609498563197
-12.083441485384789 17.9253472666241 -4.472988637359925
-12.086315251972511 17.899681639215082 -4.471549838638405
-12.435874593784408 17.866590356369358 -4.490577047067068
-12.786473375366828 17.819067441037063 -4.509089960798157
-13.14051706210137 17.807636020254833 -4.5305368536081225
-13.492618259980109 17.77848157314983 -4.551101020828052
-13.846444283557037 17.77740690116583 -4.573919304727457
-14.198596589517724 17.744247835590905 -4.595023543585532
-14.399258674790055 17.727983367664166 -4.607400273183863
-0.6455736995237547 19.00669362037601 -3.400449749307281
-0.823523764075685 18.984314093863706 -3.402465618799363
-1.1409382469966767 18.961042716854408 -3.4069101191651363
-1.5292803737496188 18.924071706974587 -3.412314472993992
-1.890729243141264 18.89351009077095 -3.417875703247625
-2.234008316279882 18.865562978447926 -3.423478322169533
-2.5593837893021716 18.84730886167966 -3.429391377703067
-2.9399869416094164 18.80960861934695 -3.4360349202861005
-3.292738669625882 18.782936423838926 -3.4428413591779523
-3.6859234263868226 18.74650769380624 -3.4505659773049104
-3.9974056417284842 18.7269131740477 -3.4573012644623384
-4.341376677133955 18.696699749399116 -3.464733489807569
-4.702711917382644 18.666141198934163 -3.4728833478886654
-5.09102189985906 18.631654325087784 -3.48201217297568
-5.407737813856608 18.607882643502652 -3.489849588194585
-5.717197637111852 18.59255884765896 -3.498095165010298
-6.1139132786895365 18.60606826365702 -3.510167032579535
-6.514859405880947 18.565462221591055 -3.5208521360902822
-6.78114290434009 18.546866988541915 -3.528430484607473
-7.171031131449034 18.45746391327196 -3.5377084974125017
-7.52362069273405 18.447686994982234 -3.548891424526435
-7.523251991299127 18.42640860496816 -3.548127446679349
-7.875419100014276 18.399759870126744 -3.5590876811077727
-8.226349811110271 18.367883200418607 -3.5700409007890666
-8.580216127920732 18.337499487707355 -3.581525094042834
-8.931983183988507 18.30539692369669 -3.5931114895703695
-9.220412667282925 18.283305788163958 -3.6030249914788857
-9.638134829073561 18.248578293010283 -3.617571288251525
-9.990753585876945 18.22039623163194 -3.630245632007136
-10.34315019244453 18.18854358216278 -3.643037490188651
-10.667124661097539 18.16754508913406 -3.655333941334106
-11.047544839503182 18.128517418030683 -3.669589868020044
-11.400697147060146 18.100369895234028 -3.68337255010384
-11.779448914136292 18.06586978574872 -3.698314816742113
-12.104487591263478 18.045566802669974 -3.711663787456497
-12.447420849566207 18.015850201788922 -3.7257369068047246
-12.809089619360378 17.98711965472537 -3.7408925834137863
-13.162437207344311 17.954549516195094 -3.7558387131317943
-13.51454894070422 17.936601232020774 -3.771385628736109
-13.853122155270206 17.89357014284894 -3.7858259122006928
-14.215150699246053 17.857337639990607 -3.8017401373918323
-14.555968428405293 17.82861531132849 -3.817168693458501
-14.924207893032861 17.809218985980856 -3.8343372636525697
-14.922789956875185 17.78944406046325 -3.8337021216871356
-15.25854550359671 17.77285795686791 -3.8496432460184735
-15.63169132626864 17.77306539782274 -3.8680402031135266
-15.621398438445748 17.74041199727497 -3.8666243201621313
-15.655774320169865 17.759759801362662 -3.8688666811865415
-0.6210254666070985 19.047269620106725 -2.681112092795172
-0.8407520599458527 19.018851735631408 -2.685079123737208
-1.1926218597631606 18.9893356534222 -2.6915687290903696
-1.5443752582168555 18.95334210290461 -2.698119318294645
-1.8542304064564892 18.936835496847678 -2.7040302614192244
-2.250353676851172 18.90397355029879 -2.711664195937331
-2.602764703952387 18.874381584154573 -2.7185774116280217
-2.991280488475491 18.836780975714568 -2.726300161394132
-3.3083662363611297 18.815701724270994 -2.7327303231856157
-3.660123887037255 18.782545652463508 -2.739935309489449
-4.013183407808959 18.75519305940586 -2.747290765771904
-4.366451046328006 18.726304852888305 -2.754752834808782
-4.718573431190917 18.696610520705345 -2.7622980845956873
-5.070444190284836 18.669453205737614 -2.7699531023742194
-5.387444970803779 18.64798054990267 -2.776937077317906
-5.776264855265367 18.611029754107197 -2.785613621824002
-6.1282433507223235 18.585305105758717 -2.7935811948561438
-6.5289347943229235 18.55397592254872 -2.8027917539222367
-6.832810247737423 18.532235833969395 -2.8098540497712716
-7.186128357637307 18.495832310215857 -2.818166836201048
-7.537335784325922 18.467167496713508 -2.826517443172346
-7.913345771179869 18.43450558361687 -2.8355994196995185
-8.243289901361965 18.41671865911439 -2.8436506747800814
-8.57475359521641 18.377759100150534 -2.8518250653554436
-8.949463850976297 18.34598661760005 -2.8611600861372306
-9.302134366414307 18.31793741878941 -2.870076503587092
-9.65312275933319 18.27886581324954 -2.879009419516233
-9.980927123209767 18.264545455218276 -2.887478696508309
-10.360031447986135 18.230722725140968 -2.897341132672911
-10.711188315495754 18.200348200359464 -2.9065850622015517
-11.064950449280577 18.173701088007252 -2.915980754628416
-11.416802076352564 18.139873973340244 -2.9254207958787326
-11.768578517732287 18.110480860990986 -2.934943294817445
-12.120646035340851 18.079372341482312 -2.944562503300828
-12.50995671580452 18.041713756828038 -2.9552983515037377
-12.826856477951 18.01614890913127 -2.9641100852672264
-13.179149096011315 17.989310122620363 -2.973989385349958
-13.495407651739939 17.96795487938273 -2.982921018144791
-13.885243979546154 17.934574419679958 -2.994024585099986
-14.253592552300027 17.904679547622486 -3.004593728755391
-14.603538895016385 17.87193098893597 -3.0147268170829107
-14.942836320359856 17.855836655552835 -3.024595675578679
-15.294059776109389 17.817436978324167 -3.0349139129693756
-15.64623138656794 17.78947877502779 -3.0453054095409975
-15.71870888809234 17.784787773591386 -3.0474518080040114
6.012199129891532 19.645308539029976 -1.7859412436682613
5.860440791798422 19.724160896845078 -1.7873642066794984
5.936533730579737 19.536658435888057 -1.7913233375111972
5.510840105196626 19.66459657825957 -1.798182009727211
5.1733011138778195 19.590984190706518 -1.8090968578094864
4.967832056173561 19.615011617693142 -1.8135091828492496
-0.6172997679409411 19.079682541310977 -1.95955925682756
-0.8549757747370428 19.05866433818499 -1.9651810954506432
-0.8576075551856133 19.037631978588188 -1.96592267382935
-1.1900214841984438 19.02153616290432 -1.9732513582732665
-1.5610777527563948 18.985556605294413 -1.9819383716533951
-1.9132270593012428 18.96208264155097 -1.9896987108338193
-2.3020410403319223 18.923084263660474 -1.9986006825611111
-2.618581367869881 18.907034986128952 -2.0052181177847084
-2.9702258914939548 18.87353798805952 -2.0130034257403935
-3.3227462294628864 18.845988887606335 -2.0204863204483536
-3.677479202858339 18.816102274771065 -2.027992692162814
-4.02865625303807 18.7848425876846 -2.0353602848551446
-4.381462214780204 18.75758598926167 -2.0425282372455627
-4.707330341982924 18.741450399126013 -2.0487545500560325
-5.086481260001481 18.705779318925867 -2.056437125656102
-5.438934897659353 18.675322597958566 -2.063379946827943
-5.832552535088077 18.63633929720927 -2.0711679588131533
-6.115368200506842 18.614444532127223 -2.0764870584517823
-6.496221129226383 18.579957685195193 -2.0836939403289323
-6.849095093206367 18.559655140419633 -2.0899004064419855
-7.2382719243930405 18.52356672756782 -2.097050318479568
-7.554452693975643 18.498195503888162 -2.10265733146572
-7.907275642632557 18.470760150866454 -2.1087675042485436
-8.25586077490149 18.44346047470482 -2.1147315285144033
-8.61260292801563 18.406253049282864 -2.121008184349907
-8.966227445824131 18.38427472233057 -2.1266790793597057
-9.318388835648031 18.348609313207614 -2.1326421103971005
-9.670944627181894 18.34103794229131 -2.137650032485124
-9.670083059968356 18.322024183859593 -2.1382391205968307
-10.022485945631495 18.292459283478625 -2.1438189856290877
-10.375947622237035 18.263990358379115 -2.149310873526101
-10.728993072855449 18.229823081982854 -2.1548601970754193
-11.08050914268361 18.201921544080385 -2.1601224583048935
-11.396985691236083 18.176828297532282 -2.1647658795564855
-11.787033983731273 18.140977306026755 -2.17056180531183
-12.147608149729294 18.110724521175246 -2.1757247389002408
-12.491085578230514 18.0788017481618 -2.180663145516266
-12.803397141188007 18.059279506602266 -2.1847888540221767
-13.196696071853804 18.02717534400341 -2.1901262385614477
-13.549279911157832 17.998578643426736 -2.194819797150526
-13.914480357197519 17.964952199515672 -2.1997203117030706
-14.251785252626416 17.94061039345337 -2.203970350298541
-14.597672116703826 17.911231869746395 -2.2083856812091107
-14.959685556085617 17.88427654807813 -2.212824678162249
-15.348813530582419 17.84542427263513 -2.2177954421328625
-15.664764000253964 17.82168502523946 -2.2215466640588306
-15.911046391815816 17.80005006183461 -2.2245184331522134
5.44075897479417 19.656468594593893 -1.0123507213621643
4.791377767684842 19.568729521720286 -1.0418450573589633
4.3628449305696355 19.677366043304325 -1.049980058303407
4.531147964670937 19.448799670952173 -1.058978620515586
-0.6197390194489496 19.108951604620884 -1.2343615046373535
-0.8691857260748832 19.087350938322704 -1.241615088623246
-1.2238516521164424 19.05669363725361 -1.251583106841607
-1.574298691463495 19.026390035961228 -1.2612153067506773
-1.9295709429856922 18.992916414708876 -1.2707599456628635
-2.2845287517450066 18.981662239737204 -1.2785546074984988
-2.2817590852151337 18.960643234439498 -1.2799242239478368
-2.612124229756225 18.939364985233507 -1.287537757970945
-2.9880861716454157 18.906797012192545 -1.2965212544813585
-3.353670996800968 18.877813359986348 -1.3046492401151872
-3.69189028254663 18.842855286702434 -1.3124824943598035
-3.996683068307436 18.825133282317793 -1.3182972772764656
-4.397167841241389 18.790883602669034 -1.3263714312357333
-4.750266987800688 18.763442725370357 -1.3329197889178654
-5.13112021268633 18.726712572963457 -1.3401470178904646
-5.454529642011856 18.70797574380299 -1.3451218274334213
-5.807614620244891 18.67509313480196 -1.3511061358374528
-6.1593002873094065 18.646436561581083 -1.3564649326121105
-6.512910441394098 18.61843917476953 -1.3614871837183224
-6.865865373711969 18.59005353029127 -1.3662183588369918
-7.218259251980568 18.56139445693812 -1.3706395426425904
-7.5351809924406075 18.53822435046209 -1.3742017023959767
-7.923398130080857 18.501756740685742 -1.3787309767155667
-8.276413537016008 18.47703016011951 -1.3820122452447097
-8.647452849944589 18.44165158136065 -1.385711460904839
-8.979605170630382 18.42427753305002 -1.3878505541312587
-9.334186704951573 18.389492992724957 -1.3908461587487526
-9.68603737815085 18.36938904590202 -1.39267110184042
-10.066155681702597 18.326143053821408 -1.395634927475376
-10.39116837667288 18.305370607192614 -1.396935244185985
-10.391806337763107 18.289788763787463 -1.3979271904923887
-10.718812100914612 18.271800679268527 -1.3987442809763082
-11.098238596598204 18.236959692199438 -1.4003567316522665
-11.45055920274972 18.209725557736288 -1.4011847731260578
-11.804331182042652 18.169140141571454 -1.4026464621175163
-12.129692370008978 18.15219717395246 -1.4024384853569378
-12.507746485863318 18.11921657965035 -1.4027975966507467
-12.861076267186974 18.089783633405187 -1.4027497833710294
-13.214600367180228 18.060979167828233 -1.4024508150906914
-13.576074838008282 18.034956044775527 -1.401657854622019
-13.919320247390509 18.005264433568748 -1.4009984698545253
-14.21948999610282 17.983161383805502 -1.399995278924157
-14.62569185410472 17.946034332516145 -1.3988203265499597
-14.978688282452048 17.91786784232504 -1.3973170601083957
-15.3304803852471 17.88473458052236 -1.3958866514224169
-15.653957844052321 17.863600380684208 -1.3938572623107321
-16.036191402142308 17.827328385972038 -1.3918694514542391
-16.388164194020746 17.798734966525863 -1.3895730461151725
-16.788882852340844 17.765287557965053 -1.3867384992453964
-17.093742351026407 17.7459730496816 -1.3840960502438757
-17.43239498175905 17.713061891498807 -1.381606019100058
-17.81723100643247 17.684992467898514 -1.3780881245443355
-18.12289522169098 17.654581872611566 -1.3755513707087377
-18.50603806438564 17.627609515795335 -1.3716269576933
-18.50706908135607 17.609636182717697 -1.3726014105329705
-18.858997312781966 17.59780275351061 -1.3680574189148633
-19.21184986203135 17.567578400185898 -1.3643896270175682
-19.563221421206404 17.536678689112783 -1.3605707423295903
-19.917980831974617 17.50422558434269 -1.3566683872579717
-20.282475744136374 17.477874402920254 -1.352081372084148
-20.62192452986157 17.445892173007664 -1.348087782858097
-20.9753731080784 17.41749140734251 -1.3435024733218046
-21.327521703693865 17.38702230881008 -1.3389206758234926
-21.690906608416885 17.356591212118175 -1.3339751181508221
-22.034948981036187 17.325924334259994 -1.3292647181286648
-22.315039210722052 17.30558108594628 -1.3250994419334972
-0.7109164800325589 19.14455383750992 -0.5052943345106229
-0.8874156953069279 19.125293631915525 -0.5117474994205122
-1.2824889907130177 19.084747921811434 -0.5254357646461338
-1.5928972246310082 19.068595396739134 -0.53417914898534
-1.9828833162039983 19.034181628237533 -0.5459470175477352
-2.290231959421419 19.017963293497537 -0.5537366346602841
-2.602265815868356 18.987827471197274 -0.5625040120777505
-3.0018383492877567 18.952958420341716 -0.5729220981896797
-3.0027798389175744 18.93269689678463 -0.575021806127126
-3.355138668192248 18.918883227262487 -0.581759957837626
-3.707172089247596 18.911497975285474 -0.5874329928379516
-3.708635397134279 18.883427424183736 -0.5903292049647226
-4.060557128472762 18.859600381174708 -0.5970193482763162
-4.377830373074608 18.819759153888636 -0.6046055826780292
-4.765715756371225 18.803179289491553 -0.6098591228568937
-5.11810230435527 18.773132057982398 -0.6157120504562097
-5.448801894869156 18.75843874700834 -0.619262054902352
-5.797188927115361 18.72106804415464 -0.6247946108139053
-6.176634343888904 18.69019811466229 -0.6291669822504247
-6.529952540847427 18.653112739176233 -0.6335910942602756
-6.8818327074288 18.638003346903464 -0.635233169186666
-7.234926111327264 18.610829408372705 -0.6376101676747195
-7.586990402619716 18.574385751791084 -0.6403779968952232
-7.9402584623048575 18.54736647993619 -0.6417015281481144
-8.294076375398845 18.522794913335062 -0.6422785841438836
-8.644583111187972 18.487970996619794 -0.64336779172167
-8.997838573651531 18.459997377384635 -0.6433134926955373
-9.386368392837227 18.42380718330925 -0.6431455080314219
-9.703695556654043 18.403058138123342 -0.6417938974746251
-10.082142171107026 18.369103205611083 -0.6404890097923825
-10.40920619279403 18.35390355081262 -0.6376345319115551
-10.804636665803876 18.309553472815068 -0.6360421418465618
-11.115057057630484 18.29213896628241 -0.6328404225428952
-11.48633863933916 18.249871673169608 -0.6304683523459782
-11.81955980891399 18.23448030760437 -0.625888461259756
-11.820858887141785 18.219278131444735 -0.6272938671688935
-12.154895247303426 18.202017290165085 -0.6223896834519023
-12.526901577943047 18.162214721106682 -0.6185080615424692
-12.879264957825004 18.139583550676818 -0.6128972396440293
-13.196540165532085 18.108043273429516 -0.6086331162684364
-13.558997281558764 18.086970062075604 -0.6018964217446703
-13.915669989552931 18.045081723657518 -0.5968541366476336
-13.982045352949033 18.04942641949739 -0.5947722241459332
-14.256063967006185 18.033771662400877 -0.5890174096843923
-14.679316056255537 17.99117452131827 -0.5814214395246546
-14.996975745432902 17.97222795985703 -0.574178657958039
-15.349585975551186 17.939624807251526 -0.5668539484583883
-15.674956953187024 17.921826407450375 -0.5586821503566375
-16.055197786369728 17.88270542356287 -0.550369767345229
-16.37421422437964 17.858338269285074 -0.5423548350079894
-16.801691504982266 17.82079390252433 -0.5316098731365182
-17.11369601219878 17.80078148828293 -0.5228449731906029
-17.457782314562685 17.770434685291615 -0.5135811576941847
-17.819723543317075 17.736483388018677 -0.5037210131493
-18.21856508834175 17.70360081769052 -0.4920660797337373
-18.525226430792372 17.681785844032092 -0.4825965315616436
-18.87922744427177 17.652613148466553 -0.4716798316472768
-19.230200668006354 17.62037706729786 -0.4609109897648609
-19.584221128403406 17.592886218885337 -0.44928983189483374
-19.93847867601056 17.56438858920353 -0.43754740646680146
-20.29996427334572 17.534308702408644 -0.4253162541951818
-20.645175975812748 17.521170974513424 -0.4122248841955547
-20.641108059301335 17.504306847799732 -0.4137097749157115
-20.996398896506065 17.475796113751283 -0.40110107121072813
-21.354013048174746 17.446978024824165 -0.38824466576117445
-21.716022031844314 17.414317182016838 -0.375178201715594
-22.046454753087975 17.383594708701363 -0.3631682082601566
-22.35882209091111 17.368597310906786 -0.3505343095872604
-0.9429488754159785 19.2298169713929 0.9780236307977246
-1.262346835211968 19.205216796313024 0.9647805341357247
-1.6034096748219233 19.188591381161316 0.9532410702817424
-2.014303627983337 19.130422769601928 0.9337936681827776
-2.297934304576385 19.124080926846474 0.927032219482649
-2.684726442233572 19.069412591523903 0.910814424174951
-3.0362523189512562 19.061141599312265 0.9042314324767116
-3.4239772765459695 19.00578743942935 0.8901106077545462
-3.741695985423712 19.0150990417657 0.8888325125315735
-4.088222393084045 18.95374127883283 0.8760414560345957
-4.447455546406012 18.945397757855144 0.8731774193203732
-4.7998772570307 18.90532447381257 0.8660001588944115
-5.154105890966633 18.90318308217569 0.8661397051263804
-5.505826175704067 18.84848631227294 0.85836268702282
-5.8567191872786015 18.8333919639891 0.8581430645282784
-5.855820083384859 18.78864205394347 0.8504594413265565
-6.231687432203179 18.793210739183557 0.855064212738049
-6.570943625043822 18.80064901393214 0.860426026334999
-6.563924375799684 18.74735194634923 0.8512459071984275
-6.911752488307729 18.737197133634886 0.8548292828579749
-7.271078253467881 18.752569481697126 0.8636319111208772
-7.271261024744167 18.70852420449245 0.8561791560978365
-7.621457745736774 18.672114057263958 0.8571906852538831
-7.974400780818994 18.629260704409717 0.8579124117264012
-8.327277945589511 18.627815190212274 0.8666654074488025
-8.71476302185854 18.571841273183036 0.8680389838570179
-9.011184509278237 18.57415812919632 0.8774174963721153
-9.385930763820847 18.517434443239797 0.8801898658594203
-9.747041540940252 18.50867041485425 0.8914054604867925
-10.067906063277402 18.471774170494605 0.8973265717977275
-10.445906460644238 18.465169543838993 0.9112178020666679
-10.823915272844733 18.398480089958603 0.9163228240948826
-11.149633716752884 18.389118823457622 0.9292126150659401
-11.504542911910896 18.35719229789058 0.9406061651470004
-11.77049686994031 18.336027934294766 0.9500461400157745
-11.671864154725164 18.393648860887208 0.9543534190277354
-11.85996152974463 18.34590999496892 0.9560406018047494
-12.209300876438874 18.302223635825168 0.9668661467813799
-12.563587302223201 18.30541600643306 0.986012053680994
-12.915034793759787 18.235780054096843 0.9944943688973868
-13.2818262333884 18.244619944175582 1.0166068042109089
-13.593313306412146 18.19367250989407 1.0271390844142387
-13.979050113513548 18.189800125390715 1.0498300885831315
-14.333396387860692 18.138439968978055 1.0642939225153505
-14.668953182555523 18.117743268459385 1.0826903993035706
-14.68015809144115 18.08218921262139 1.078123741484828
-14.995151919344398 18.079853668779712 1.0986726481327587
-15.363845158516185 18.117555674822782 1.1291068737379857
-15.386700922562731 18.040286106278604 1.1193116770832319
-15.770509958014738 18.02868464928106 1.1444305439124385
-16.09943121763829 18.052858048901673 1.171308228417069
-16.058134032896128 17.975399896804895 1.1571349090484606
-16.453590691537954 17.969320274591883 1.1851360150558472
-16.844218088740426 18.050817116386597 1.2257912185796664
-16.79549500640196 17.92000619896642 1.2035245100590668
-17.17639944206381 17.926043643245105 1.2334125049706839
-17.505739385005576 17.88068699168225 1.2525524965663024
-17.883878554420036 17.87420185860677 1.2815906852706216
-18.240586184588697 17.804873025707817 1.3007494858976067
-18.33154253959575 17.839008195756772 1.3128335505337279
-18.55113134623917 17.80423455206356 1.3261371475896042
-18.915265778851868 17.769707436145683 1.3517149945535456
-19.284616344319787 17.780958766965313 1.3845142474767114
-19.625722904057085 17.704048692975714 1.4035157126622924
-20.017633317114353 17.710708933521232 1.4385596477211227
-20.372417724652458 17.64643623997114 1.4615478253624756
-20.689846706824 17.66356409196585 1.49221026940865
-21.018079553264094 17.598392678089095 1.5135801125194046
-21.398664558214477 17.611435608585825 1.5501761306330808
-21.587866071557315 17.55813032624293 1.5609420277432573
