# .PCD v0.7 - Point Cloud Data file format
VERSION 0.7
FIELDS x y z
SIZE 4 4 4
TYPE F F F
COUNT 1 1 1
WIDTH 655
HEIGHT 1
VIEWPOINT 0 0 0 2.98023e-07 1 0 -0
POINTS 655
DATA ascii
7.1398728286589 -16.866738205199955 0.03420239000969927
6.878990534599726 -16.78026071878071 0.031580172804673845
6.577724235570623 -16.71775347033008 0.026958306117460085
6.188548103431688 -16.616765429196654 0.02168495043790375
5.9099589801731485 -16.546183066224323 0.0177539817715493
5.495815290860756 -16.425001127051285 0.012409653105076357
5.194833158727308 -16.33766774789641 0.008402808469091916
4.87407505059366 -16.2497377235828 0.0037934301758640876
4.508852899329441 -16.135061796530277 -0.0009652385743286196
4.186942239374914 -16.055578922083736 -0.00617559067987461
3.8184161260393967 -15.922539457596377 -0.010556892919920013
3.4444572702333005 -15.85049302677396 -0.017710622912721297
3.0918141396905816 -15.742429712898524 -0.022989893411666573
2.825061770616399 -15.686117841509658 -0.028085799744633544
2.465682421830597 -15.5679066303657 -0.033402895182435444
2.0664313760250086 -15.44863924880276 -0.03994081923279369
1.8233724242765805 -15.384743250159625 -0.044381812080657834
1.3539696202207447 -15.243108805412918 -0.05240079838847367
1.0747902422569124 -15.168497890976258 -0.05768394620735173
0.6902691983260816 -15.049143001429407 -0.06445773216655559
0.38915095234051833 -14.994047131752348 -0.07139871835217515
0.04388243591865937 -14.874435308392133 -0.07727024475235755
-0.299215930999404 -14.757899665292426 -0.08331298396054065
-0.6014572629706629 -14.702556434393967 -0.09064925175777061
-0.9869633947191065 -14.593867041144875 -0.09863382612295479
-1.3375400803953275 -14.54966393122883 -0.10820110476188605
-1.7148880759657157 -14.449285825656423 -0.11657559424172259
-2.0272364697986083 -14.381492304075767 -0.12422212799077559
-2.4010051873997176 -14.226753731562285 -0.1306740083139838
-2.673660834750984 -14.065058778236457 -0.13359132645557503
-2.8184585357585314 -13.989648207249179 -0.1355960397879068
6.862374997413756 -16.850115247038048 0.6281821166253398
6.5732185214609915 -16.761269593091946 0.6206209434471857
6.171518103595642 -16.646836526745318 0.6101777629408391
5.892668373975567 -16.567630472139072 0.6030174327961868
5.47909724136125 -16.447738379552565 0.5925682959053435
5.179843172664051 -16.363810128895963 0.5850834240694324
4.8401768442363045 -16.26889025805743 0.576726660932851
4.454013856650236 -16.15302415855419 0.5673861283886671
4.192954949053194 -16.090658388588388 0.5610952876581087
3.7996069080631902 -15.947545422492512 0.5520038810770207
3.460181393970683 -15.880556122551694 0.5439885445447838
3.071866620573919 -15.765233835486573 0.5352029965282556
2.8120860280974065 -15.699996736244016 0.5293358428897714
2.430465413891171 -15.583352652563478 0.5210089002558431
2.081114651452529 -15.491038325743741 0.513422482674406
1.8263625014265612 -15.414439520996398 0.5080556033248781
1.3624128134776687 -15.272864173838531 0.4984687118020449
1.0575879115081963 -15.17615308504241 0.49233790134668465
0.679971125388203 -15.081020029141294 0.4847568422646477
0.4133392903292368 -14.998631598029217 0.4795768824325709
0.07057681125558624 -14.855230262560994 0.4733149207182399
-0.3407849647582539 -14.71262214642916 0.465780674346782
-0.6101854019002753 -14.628103844568702 0.4609152537028406
-1.010928957199444 -14.501125934888776 0.45384762186993777
-1.2924447527568041 -14.419621189764891 0.44892969972390057
-1.6982960607830577 -14.304341696003291 0.4420261017439821
-2.0212753876642537 -14.21728744910272 0.4366054871569095
-2.319169023317878 -14.13249443825588 0.4317735016773517
-2.7327835856977165 -14.00671211913925 0.42526808509744124
-3.0241725306815885 -13.95726582200877 0.4205130613919219
-3.4340983120465536 -13.841813872048998 0.41432506261144303
-3.7105782702075283 -13.781683869970896 0.4101083651183226
-4.095809766340939 -13.659785671275968 0.404689943481049
-4.419977808947379 -13.54788169508179 0.400315633569514
-4.423147238912464 -13.580346870852866 0.39999027123855596
-4.7572695546021295 -13.476580881031264 0.39552641408813116
-5.110284622288007 -13.370601498594635 0.3908760442263952
-5.4196075510440425 -13.297350846502939 0.3867499507600581
-5.837624179752161 -13.16304522808043 0.3816248156930063
-6.114030349338289 -13.098404161398134 0.3781021877521775
-6.489858841921953 -12.9831912828722 0.3736959326948987
-6.79364316009639 -12.919887735334552 0.36992333387228465
-7.14774261159378 -12.799705422761098 0.3661071917911449
-7.515366870815169 -12.684303674039581 0.36214867123935823
-7.8341329289440145 -12.629187203183287 0.3583571191944219
-8.225753155927855 -12.477658328050861 0.35468162486474863
-8.38061010262803 -12.531460605608984 0.35203364447440266
7.482572231990545 -17.110824380246353 1.2561998780077421
7.249184589271701 -16.938008937611684 1.2433198747888248
6.871101559129125 -16.819509002125663 1.2273164049007907
6.580551732021756 -16.73980821097765 1.2156428144144247
6.171369427748855 -16.61828769847678 1.1993303541125635
5.8535862178576785 -16.527210382682522 1.1870818711579005
5.505321884798265 -16.42694203585413 1.174050800844216
5.16812064063207 -16.32719156069216 1.1616149048413522
5.166817263488262 -16.34321472338485 1.1620499394112551
4.839423204509885 -16.240256236988294 1.15022144123373
4.480559790172523 -16.141901858152913 1.138003618600198
4.163477865136832 -16.057327664625635 1.1276617078882056
3.7986695268104578 -15.88777849537646 1.114051300496115
3.4473908363492014 -15.832791338733054 1.1045033507555688
3.1202267774681607 -15.707188918272564 1.0938794300544317
2.7735640190838797 -15.538693090679377 1.0819148166193653
2.7610225958247274 -15.657336005235722 1.0851057885771216
2.4329393291710106 -15.561073287774011 1.0760960354975913
2.0830086204440525 -15.389703874373494 1.0648524334229035
1.8060901499282278 -15.326269292651647 1.0583605424626477
1.4085357800392888 -15.232101478825248 1.0494399749262793
1.0876593443968674 -15.180813080134184 1.0433065941729374
0.6956636635113989 -15.057119616579355 1.03465426927717
0.3655949614088101 -14.976244872758796 1.0283731910847882
0.039894678038449705 -14.880292570158987 1.0222133889755152
-0.32258287737502567 -14.771410687907332 1.0156365963671288
-0.6749794548917274 -14.67633009846424 1.0100577014164427
-1.0443059471525178 -14.56727129735399 1.0044091416231316
-1.3252768391647018 -14.49595859058174 1.0007251894511269
-1.738083364686224 -14.373843169343301 0.9954242183313844
-2.035375604704874 -14.2906436914486 0.992040539779097
-2.3587441477404507 -14.197851201543362 0.9887397905652582
-2.727846229713175 -14.087169852192856 0.9852010707068838
-3.036116033299434 -14.010307570130925 0.983036786739781
-3.4138534243301875 -13.906585188855509 0.9805141983023589
-3.757780614416192 -13.810645884672763 0.9786167129099156
-4.147415249871735 -13.695942796181543 0.9768225126671337
-4.4065325346970505 -13.633053433684193 0.9761310768556827
-4.787578293379112 -13.517016755463306 0.9750837455674178
-5.167882446468931 -13.397232786271278 0.9743423475491523
-5.428945714175195 -13.33558291048014 0.9745410188383244
-5.818004947515569 -13.220880396736924 0.974697224728537
-6.169447511082665 -13.131688697138124 0.9755034113184914
-6.507258241523856 -13.028538672874124 0.976293204031875
-6.849357382364372 -12.94237656547001 0.9776752324930914
-7.216051226764436 -12.828530205824862 0.9792150232671097
-7.569894525371006 -12.709572390820751 0.9808381813623895
-7.8470442118136985 -12.625067167504374 0.9825266085386413
-8.244382327191818 -12.500630022231517 0.9851909894397431
-8.568019603608835 -12.4262980485554 0.9880089651080888
-8.892682329375365 -12.318855758738634 0.9906682187577346
-9.251603117856185 -12.249064073214166 0.9944405519414264
-9.601355618486338 -12.137663432013131 0.99790887097177
-9.939316347113241 -12.045017309052165 1.001621504051387
-10.029196554874016 -12.025389614199216 1.0027078565423233
7.018085003645638 -16.830409478777536 1.8336268492746308
6.872254440780024 -16.802055064076395 1.8263439468927747
6.529858306433006 -16.706531105866322 1.8077472140671236
6.1415862091236395 -16.590659190282956 1.7868908153387402
5.880665053048905 -16.522513059120804 1.7738309436450779
5.494269263708482 -16.410065016578642 1.7545274462604397
5.1548057498058 -16.31230342123975 1.7381298373942777
4.85597296439141 -16.231340273847618 1.7246395845057547
4.442525751124579 -16.113546095428752 1.706269601856696
4.162678031221713 -16.04131891530576 1.6948945094716839
3.7630781345483015 -15.917090208401047 1.6780281212281627
3.430378338712619 -15.831801132997375 1.6657542630013618
3.1245535667885793 -15.740323022552474 1.6543237504017525
2.7529480404107027 -15.6326157080863 1.641179280938653
2.4358237737743647 -15.527745936900217 1.6299074966596727
2.0905504786807874 -15.397963908954896 1.617231034721697
1.7655776129545666 -15.35833722534814 1.6112003453600379
1.361239971318347 -15.225823035716711 1.5993422473090635
1.0401954107637277 -15.144672594014569 1.5920419760813647
0.677041164185344 -15.03877221819276 1.5838075165577874
0.3517114506083585 -14.945301083396963 1.577013411436166
0.35056285180123226 -14.969804005600691 1.5785075306410221
0.024633387141490104 -14.855977068270745 1.5712763710612585
-0.36815759119562497 -14.735806951763191 1.5643244357490724
-0.6356799372395185 -14.665067320982162 1.5608417235324126
-1.0191379471023714 -14.552081211240578 1.5558872593451742
-1.362259908273857 -14.467914150840702 1.55313441519275
-1.7126430686234029 -14.366358659786494 1.5502409062757447
-2.0506965648499857 -14.258396745320129 1.5474164359641231
-2.0506102417213716 -14.279235533251427 1.5485884777772894
-2.416730091493249 -14.168927898243425 1.546822219217232
-2.727006352359015 -14.07656710596899 1.545848910039163
-3.0538551120553077 -13.985556224596435 1.5458624095352373
-3.4503224655207196 -13.86799478037313 1.5462650375948246
-3.7313820928471246 -13.802053615952222 1.5479741497404662
-4.136521559873434 -13.681742735925177 1.5499163959338689
-4.453772510708418 -13.569005241753235 1.5510492704285777
-4.451819316088758 -13.594667288177147 1.5522880036907347
-4.7913266162618084 -13.492604629749334 1.5551420672679641
-5.139091075539553 -13.387576436876286 1.5585151135365432
-5.4836677517993495 -13.300155568314086 1.5633431896649712
-5.868374900383123 -13.182589912705755 1.5684457134527805
-6.142966201825781 -13.116865098948775 1.573333420138757
-6.299816673557475 -13.05921721919275 1.5753784959221653
-10.269781299904288 -11.953246152647933 1.0055041260490165
-10.682655783988505 -11.811024169372015 1.0103806188774898
-10.934489771819255 -11.766648572419381 1.013907786867632
-11.334402714373859 -11.647183639602488 1.0193121833118428
-11.658114250276125 -11.564908178751198 1.0239834297135513
-12.023901726036662 -11.451422075501432 1.029369606640709
-12.341712976970054 -11.356240234364849 1.034218155929856
-12.679267408178688 -11.35736903069552 1.040199593689219
-13.024797335798901 -11.253502485250632 1.0458022065915085
-13.332737452505974 -11.168806597769283 1.0510298161084985
-13.75384128922996 -10.950941059055236 1.0579349325357494
-14.056739727441954 -10.861805407446301 1.0633789290755953
-14.399142210012588 -10.736172279176037 1.0696442399013937
-14.740861221785195 -10.615404971164569 1.0760620852063763
-15.060456759440761 -10.53326560902866 1.0823110295712386
-15.457090305494756 -10.4184694193363 1.0901873477750972
-15.734091492323131 -10.327107236328967 1.095789838875136
-16.127002154577166 -10.21076691682275 1.1039299652288916
-16.454529155929315 -10.093592505330435 1.1108301079921077
-16.453045893558645 -10.121977294491481 1.1107977494878147
-16.788276452001845 -10.014360009832275 1.1180091757887105
-17.1780366419347 -9.887552655718514 1.1265309946075477
-17.457246043491693 -9.819624538587494 1.1327119000198806
-18.07766854118304 -9.810840616220704 1.1463905054667571
7.25835054062701 -16.920392330172866 1.8486718975064957
6.985604611438672 -16.84128147362211 1.8330852917420812
4.727354610260599 -16.146942007362004 2.2895196180092543
4.428093204236416 -16.075147743902402 2.274765215072436
4.158122869966167 -15.996070175162712 2.2605204505886136
3.7361008114845617 -15.880699280287255 2.2402959219517515
3.4389692753789975 -15.798278695427362 2.226704111066096
3.1122738018168987 -15.698737990939746 2.2118369185282987
2.747295800440865 -15.596728850455813 2.1969137356599187
2.4605706686681925 -15.508480240351577 2.1853293044846533
2.0707102327346374 -15.368194663228538 2.168575569242472
1.7484772300626807 -15.312485234473657 2.161527476207534
1.3346700965019478 -15.193026327309934 2.1492250128339356
1.0368727041339794 -15.113962857411149 2.141795708728458
0.6956107374534675 -15.017726481368904 2.1338424749927043
0.308458021267608 -14.902305851985515 2.125187965540824
0.04817698374874535 -14.836351250825924 2.121342918082723
-0.3741185110661558 -14.700116642514821 2.1133981288057537
-0.6541178514316943 -14.622267625385497 2.1101191343802235
-1.0663616473967155 -14.497250391169953 2.1056306828025475
-1.334537510131959 -14.442445431950828 2.105778764124267
-1.695995735828765 -14.330730502183698 2.103702041937261
-2.0942060211633855 -14.212688006170353 2.102897246076021
-2.3646494117620547 -14.138402235334599 2.103779526714031
-2.7433658473842106 -14.033823419486794 2.1057564020209742
-3.0871257091036126 -13.938024627955567 2.1085047574321845
-3.470584109139108 -13.818048212582783 2.1116330524588642
-3.7748965723856456 -13.759407925546927 2.117825980128118
-4.009829467987566 -13.66330811420973 2.11902036321289
-6.290100688976001 -13.09690826675907 1.576760174819741
-6.54236177643316 -12.996951851114332 1.580026942700587
-6.8568463624913685 -12.879332289015517 1.5847604976100484
-6.8577468250163625 -12.913334571498128 1.5862415739058
-7.177590023670244 -12.81745170250315 1.5926199365636444
-7.543762486495354 -12.701319366659874 1.6000975806197
-7.866823648195548 -12.619135408153765 1.6080803794839558
-8.245317641667295 -12.462123619411466 1.615564672650047
-8.573242751351003 -12.42178717769966 1.6261362587447155
-8.90358108404429 -12.306446593462413 1.6344533521382856
-9.256553496741322 -12.187280718452003 1.64391127174782
-9.257096831748814 -12.221820662410394 1.6451459506334718
-9.594908019493023 -12.11782929470129 1.6550565362815925
-9.950489847827313 -12.014586030051236 1.666041511576707
-10.25885999664068 -11.941320621946337 1.6765137174202525
-10.683345421716481 -11.810109094567805 1.690397365737001
-10.951600681599452 -11.742240958456204 1.6999384956154349
-11.366766040995575 -11.619227131892968 1.7146354650925364
-11.631758979559375 -11.558555691471879 1.724750912775955
-12.008684528641236 -11.43541448141598 1.738523675584701
-12.309259596831708 -11.337258081946176 1.7497560993239367
-12.42424405954154 -11.364271295435378 1.7558047610005567
-13.421587854589696 -11.049836996288407 1.7954716105874233
-13.76825771482315 -10.948002975125336 1.8100626467842122
-14.070196175679637 -10.873914866088716 1.8232797357660173
-14.381220296684194 -10.764060624649044 1.836456044837075
-14.764103629093519 -10.639259874780771 1.8531546164663513
-15.07163295135916 -10.571142177704996 1.8674677374237285
-15.479203936101385 -10.447809934375133 1.8860592759957746
-15.66880281456984 -10.392266565403515 1.8948492395745344
7.458715402943094 -16.93325630635653 2.46743994442198
7.281106972624663 -16.89513634494689 2.4556675077162247
6.8577727476555665 -16.75930395150192 2.423886333996597
6.557905600562567 -16.679616869948727 2.403683443845975
6.147977592842224 -16.55615762041166 2.3757363970691525
5.837857402895891 -16.46040215405535 2.3549724527351334
5.836758984933559 -16.476189469950896 2.3565061043787736
5.499662365814254 -16.375642550612458 2.3352674134432863
5.149785149536821 -16.276562728878574 2.3143822822627858
4.840100462095703 -16.188330435508895 2.2967221326837683
2.8888035580716815 -15.571236864446197 2.7565499474418163
2.7104435355255205 -15.535751499553909 2.7504143058817077
2.4582401066459765 -15.44868893172019 2.7373625212619563
2.05358066254146 -15.334562453556693 2.7213029885770172
1.7118331255529524 -15.267432562597259 2.712804902668774
1.345622089333133 -15.154100933955787 2.69986925617399
1.0232175339982286 -15.059321090003925 2.6900648101375184
0.7148622922482799 -14.974281018460301 2.6827551357373256
0.30390066608623467 -14.854401803949933 2.673542091504663
0.032373652347115645 -14.779678217818319 2.6691490330487198
-0.3992297889009935 -14.652365084938383 2.662672144646323
-0.6909880861225437 -14.57374068988065 2.660324076719812
-1.0515827709262764 -14.46644127547702 2.657655644628642
-1.3774286429747375 -14.375713079447655 2.6569080618344367
-1.704726772649395 -14.285333506693021 2.657689210098813
-2.0934568213807125 -14.16817055460618 2.6586850373399233
-2.217748700043888 -14.119337890891874 2.657981317762368
-4.231564588404745 -13.617089844516148 2.124073209551324
-4.499186841962518 -13.522585869620448 2.127565144142798
-4.757462357680356 -13.460079999526213 2.1338130611572623
-5.1474256387693655 -13.345328301992431 2.1423841517517013
-5.49320805330495 -13.257633755935995 2.1519884682509076
-5.869600549474554 -13.143657601446348 2.1620171971228066
-6.177872793759971 -13.070719764483215 2.1723141916057314
-6.511877852017181 -12.961450691751285 2.1821737980396563
-6.871008992028657 -12.8600149796049 2.1945494739449556
-7.168648715796791 -12.777288460638205 2.205591402211973
-7.581515700713218 -12.652327674254003 2.2210276771936046
-7.862990551555776 -12.583068590376111 2.2332186336234656
-8.250063773777807 -12.456324405273998 2.2487032777881613
-8.583816092338772 -12.37864715052159 2.264614569494362
-8.944166911556255 -12.259556151403164 2.280459433261295
-9.276901745081144 -12.164500917680705 2.2964895495762887
-9.580567948365186 -12.083922421398924 2.312017792157908
-9.95919721444838 -11.968744870644692 2.331136272070688
-10.269580290963166 -11.893873237854727 2.3484277564196208
-10.670046563543554 -11.772665608466344 2.3700622458240055
-10.988634261959689 -11.690765523352033 2.3884970674509542
-11.358934961014285 -11.575164399464866 2.409502376029295
-11.683199637917308 -11.475203314826254 2.4283228828900802
-11.979670188284164 -11.398064776721139 2.446744386820134
-12.251812686017946 -11.305417433669914 2.4628435451854402
-15.801245468552832 -10.367574173512482 1.9012868083649386
-16.178024095713127 -10.246356218052894 1.9189192420009475
-16.48356964469078 -10.192480813141584 1.934081348072311
-16.825267653397834 -10.069868204780112 1.9503114288315362
-17.193124600244587 -9.948914759984891 1.9681671762858195
-17.415441719152383 -9.917716420956449 1.9796539699648257
-17.937093171084705 -9.729388178522973 2.005386884408084
-18.158127582455975 -9.74732778914986 2.0175896763873618
7.499824295956923 -16.919478020126828 3.0822516546989154
7.228677084909764 -16.82273297749062 3.0554702017042525
6.847824049621973 -16.712746945280667 3.0223887534673954
6.520449160560412 -16.625193393139366 2.9956899228107545
6.179084437584472 -16.52187362101148 2.9674704142321087
5.792763627491798 -16.404692175724453 2.936483216107667
5.478839592002542 -16.3265665689725 2.914823908413768
5.145138363617276 -16.227428257050377 2.8904183298326767
4.800163138942385 -16.135039795390735 2.867755832301229
4.423254776457365 -16.023869462702596 2.8430128629943963
4.116020387997026 -15.95355000650695 2.8264456760503203
3.7653430862480994 -15.838988360904635 2.804308658914491
3.423551530575196 -15.740193036149517 2.785408166307494
3.1267006893525755 -15.660209338898795 2.7709810619626554
2.7581795463034693 -15.562229919579236 2.7542870519112985
-2.1439351587597413 -14.16095363384165 2.6598814566340656
-2.366676757055518 -14.101556366686031 2.662310920037122
-2.776673411434146 -13.981202471143028 2.666724825339277
-3.0934034952796683 -13.891918532086446 2.671714929786959
-3.443612840480614 -13.79246817820334 2.678516088560235
-3.7810548384105447 -13.687936856727756 2.684957442503626
-3.7815042935925414 -13.70512774256528 2.6869042080392296
-4.1080686113360185 -13.60303933706198 2.694376627316903
-4.469098099470817 -13.49576764880593 2.7042406265769925
-4.74334028939612 -13.425913930576181 2.7139228472428414
-5.195665322588543 -13.295763818519632 2.7297374315763316
-5.462817712784125 -13.225753423689337 2.7406420888929968
-5.8571095915375535 -13.110612639035043 2.7567646674502315
-6.185674491341023 -13.001730213512577 2.7698010265631665
-6.1859790235769045 -13.020052501350293 2.7716343466332205
-6.483094611510034 -12.933731029691893 2.785630026482698
-6.873820613812973 -12.819528438742948 2.8047993443151387
-7.191168731274035 -12.728102115115512 2.821523677738371
-7.6321624111506265 -12.598089531241438 2.845769063533215
-7.902150170384117 -12.518815458479194 2.8613438803120426
-8.263895836292708 -12.41454533962546 2.8833580404965558
-8.592848249974882 -12.30882329589564 2.903094432042885
-8.591025003374458 -12.32410127037624 2.90424093820257
-8.927978911796295 -12.219492726195128 2.925722943949185
-9.312857600806442 -12.104253886807683 2.951464966116953
-9.58263857230516 -12.034932565269168 2.9710563546244266
-9.972226543560911 -11.926366352548078 2.9994335239024696
-12.251798835832467 -11.330272109144623 2.4639896570219184
-12.33697691317516 -11.32110272468506 2.4699903537503993
-13.321039449726587 -11.004230428009757 2.531859959060035
-13.40169259381544 -11.041955850526994 2.53973997316976
-13.738361440546143 -10.894021964771111 2.5602228968817906
-14.085396521073289 -10.792515668903528 2.583745510193388
-14.405022449265658 -10.705567284665568 2.6061012745161825
-14.799237657705856 -10.59027915559789 2.6337258897333706
-15.0875822593996 -10.510116876418659 2.65438909765876
-15.510596243273358 -10.383504300629518 2.6848476548618643
-15.804194708830263 -10.313877004528273 2.7068531740566533
-16.159598077455954 -10.20511055413052 2.7330635528617364
-16.494298683964086 -10.106915581528243 2.7581104397829352
-16.804333767050725 -10.02163912702178 2.781787673678157
-17.23560509970315 -9.876035006178482 2.8143226550536213
-17.426483723265655 -9.86265798100524 2.830278674419324
7.456545467485555 -16.875115195011023 3.692567220050366
7.190416590932447 -16.80228094616754 3.6651298133167494
6.838290700982289 -16.70053487346587 3.6291415590350375
6.50555625379809 -16.586333969575076 3.5930753186980913
6.504541992050604 -16.603573083936855 3.5959520597672583
6.167260606922926 -16.506841564583873 3.5641012285988536
5.818458320778179 -16.40830180323659 3.5323997490456964
5.492116509993495 -16.31596819323717 3.5041432562700936
5.0970056918343865 -16.206815424911845 3.471950253565028
4.826602615405932 -16.127803360848294 3.4501869277818678
4.405007961465454 -16.012693127866676 3.419515191044497
4.106943041374842 -15.923683930562829 3.397649062362202
3.765602116040449 -15.834120564810204 3.3763408692683834
3.416015221260101 -15.71904234261903 3.351766405257089
3.0983682014856937 -15.641127260099555 3.3355651707772527
2.7306186320942736 -15.545057394888318 3.3171647366408084
2.428941104167854 -15.42583418082635 3.2966142627061537
2.0463209906603863 -15.31970544884401 3.280055098301129
1.738967444355025 -15.267540653203303 3.273413301968649
1.3586502683890203 -15.153882708956758 3.259063602141452
0.9793307729254472 -15.035505937260853 3.245516328770877
0.7127083017837021 -14.977773515394246 3.2415999735246532
0.3000930748899897 -14.856155404945303 3.231786196310501
0.019175638451946142 -14.782106083723274 3.22797972810955
-0.3801004862615276 -14.659162207054221 3.221498251322246
-0.700492219540342 -14.577550007874818 3.2203884376446936
-1.0609729929835696 -14.458644327466649 3.216786771406125
-1.422147824146732 -14.340262084715437 3.2147469963515634
-1.389252101394682 -14.411982783746224 3.224333362973271
-1.7060514193493086 -14.287324055384445 3.2208454558704083
-2.104071636807922 -14.168362594764917 3.2239429258323917
-2.383035869996738 -14.090871054113668 3.228360012247804
-2.8177336468179615 -13.968546376128845 3.236943182706196
-3.0849866254970912 -13.896635431362212 3.2437177809099107
-3.4481023893939957 -13.782207337465664 3.252274738015701
-3.7966107985889677 -13.688104622452116 3.263901892238036
-3.7986581054756305 -13.717431709774404 3.268234390837307
-4.1109580185628145 -13.599412334860189 3.275409158120227
-4.509513550381956 -13.480409608230646 3.2905076354641696
-4.801556861665188 -13.407663085463126 3.3048257090123547
-5.195173142731391 -13.287233059322471 3.322616338550199
-5.512788035698013 -13.209112896105998 3.340615777866005
-5.890503128084279 -13.095530399314931 3.3609886129711186
-6.202392421145523 -12.996003620158987 3.3779455818444455
-6.199388055872769 -13.03539016774812 3.3826367024362467
-6.478705495342914 -12.921751025148852 3.3958688517913393
-6.914559885351092 -12.792811411939208 3.423930828689736
-7.2139479763942616 -12.720882313458457 3.4464051959883557
-7.583683332296084 -12.603909772026071 3.471960242650203
-7.916562848927893 -12.513055900589537 3.497638980057404
-8.225226029006343 -12.415582548230244 3.521014692504285
-10.145331963217494 -11.878895388683347 3.012383749283232
-10.276608058215338 -11.845783286450175 3.022570462781733
-10.671731303054845 -11.727332081538636 3.052443830120405
-10.997904423764531 -11.622356717104152 3.0771565249872115
-10.99768493369779 -11.637617867174818 3.078235303620403
-11.275731237487793 -11.554362911895025 3.1003562750033637
-11.68775662284244 -11.431115587223148 3.1337748022472374
-12.021768822505727 -11.341081621256057 3.1622464331969433
-12.413026235234742 -11.22387887058077 3.1955240572664767
-12.717912051010106 -11.13788916168016 3.222300885395835
-13.06941105868949 -11.034777893294704 3.253532348546834
-13.405094735455709 -10.92839131414194 3.2833340792456736
-13.405513656642746 -10.9449869229536 3.2843653739801972
-13.753349361058223 -10.837038467701916 3.316011121523686
-14.096992020097098 -10.74084408785059 3.348299842474488
-14.397721097869066 -10.655022809986006 3.376914031204602
-14.708291251458839 -10.567099801736267 3.4068511576756295
7.459283679832957 -16.85635842062219 4.315060405985952
7.179563104993774 -16.781420002530222 4.282071127418982
6.801172858303941 -16.664925571225965 4.236088367992909
6.491707472750646 -16.57479639501355 4.200589538948669
6.192855784281071 -16.490089622491602 4.1682427189340245
5.753376510516864 -16.35778929351542 4.120868799455817
5.520862234495134 -16.30244711167616 4.099981671959436
5.123519975871071 -16.187367897541094 4.061673127076804
4.7793405787828105 -16.09642217110695 4.031961174040038
4.388356184633366 -15.980077600758376 3.9978513550159644
4.0945135321289925 -15.894303673075916 3.9736289509195717
4.091666671725199 -15.914894683046539 3.9778316299557357
3.7391455577569928 -15.802547703719936 3.9489841115132025
3.37558174965337 -15.686835152058048 3.9208341195917598
3.0910688860740088 -15.621916450148397 3.9056416373743144
2.6436167818343628 -15.470151305435369 3.8740479506444085
2.4420316005353158 -15.404237929584408 3.8611673022457516
2.0426151143258395 -15.300387619591927 3.843484659446922
1.6964411212535526 -15.20584785747736 3.8288127778474315
1.6952354845633866 -15.231709107323121 3.834075241965747
1.4016230349028858 -15.148609836442017 3.822963904953525
1.0067948552734358 -15.024926228354087 3.8072346629417235
0.6906235566603107 -14.94428099320019 3.800431792792817
0.28023155568824887 -14.81617896047881 3.78906874221793
0.005298947971517087 -14.750994501324616 3.787031381881088
-0.3914660869540594 -14.628482438774348 3.7808395300476874
-0.7035923502975532 -14.51309289709667 3.773809419455929
-0.7089011975683865 -14.542446377711734 3.7797554332539245
-1.0637706615666982 -14.437940369793006 3.7792074338259787
-1.4080619299885173 -14.316189966873083 3.7763967132953873
-1.7120307897985976 -14.252540354822582 3.7840065404445316
-2.1222948411879514 -14.129354312230863 3.789301298420573
-2.398556630427204 -14.064555738667755 3.797653880526343
-2.8118702527467736 -13.93991322284668 3.807426031133566
-3.079753149781067 -13.885578000203386 3.8196475807716976
-3.4672443418719956 -13.754303264010362 3.830184966372166
-3.8015664252173904 -13.64933566962652 3.8422538018468195
-4.121987905208846 -13.569628584373694 3.8592320174787265
-4.519499242487028 -13.454520830408399 3.879244704125845
-4.8488626845743985 -13.369732535763898 3.899253685846257
-5.171664530828756 -13.265005797382134 3.9168627930157407
-5.484555061112835 -13.198292021774757 3.940638774224837
-5.897258484819496 -13.069520245451349 3.9677316648857266
-6.194969522330008 -12.962828645174389 3.9862244780258558
-6.517885988755979 -12.890693441404915 4.014549791178434
-6.927034398598976 -12.76794635001231 4.047218288239861
-7.112886450641908 -12.711556292409696 4.062587712618651
-8.478523817865224 -12.350749136720026 3.542370671700728
-8.609653170414436 -12.303322226119016 3.5521504950206007
-8.61006553932248 -12.344451962750556 3.5567074056269106
-8.923117817700781 -12.217600427404838 3.5792775538427906
-9.320670668283185 -12.089997876236879 3.6126826855314205
-9.598533660134432 -12.0331447664704 3.6402081072174868
-10.01875676097255 -11.900499331998192 3.6781586640592123
-10.305556017785044 -11.831398477641077 3.706871291150326
-10.680137390520606 -11.716941778000967 3.7430766298676788
-11.046208960386593 -11.587356314929785 3.777643410940528
-11.28242444581306 -11.542984817805596 3.8041644480554364
-11.729276841598601 -11.40954609621687 3.8506435543654076
-11.990684761587993 -11.339278444623833 3.8791760536371473
-12.425737611531726 -11.208990453968326 3.926431679543554
-12.674481731834614 -11.141990478398904 3.954512371701866
-14.888180668628685 -10.514492990370522 3.424286145546905
-15.124341717836053 -10.446229919521024 3.447396033105499
-15.517940006583228 -10.32893064483348 3.4862461150812694
-15.81487118065823 -10.237859897125292 3.51572541033064
-15.813937294862171 -10.255839026434188 3.516492533302467
-16.1423499867463 -10.148049026579686 3.549208654273444
-16.52757622718191 -10.03346202200262 3.5885540471380892
-16.80450949365229 -9.958104938911793 3.6174915940233094
-17.26901841557733 -9.776783823648962 3.6642323004664927
7.603151946120584 -16.995384909243903 4.35270743205548
6.68071209738911 -16.564834615692046 4.828420301573377
6.45501825919432 -16.494106749382716 4.798204248104181
6.187100234094766 -16.4246218761512 4.76684092111046
5.75891168408624 -16.303001353931194 4.716321721807905
5.4630041435626095 -16.213625279359974 4.6817469945543815
5.113822612552245 -16.114367474312893 4.6445147387964685
4.778221679089921 -16.016227024840326 4.6094523399596925
4.775471581812278 -16.031646777790804 4.613122209434171
4.476897545724012 -15.94238520787682 4.5834612936979156
4.091502866291685 -15.826366334205678 4.546758740874253
3.7741795815251424 -15.741567228921507 4.521246193429008
3.3660308008630073 -15.620489902363106 4.488007414473676
3.0679562775076583 -15.541795842969625 4.467873477463057
2.701500761143288 -15.435849330792278 4.443311659333543
2.3706429179472104 -15.26200959381695 4.404010086667949
2.3930872294742214 -15.344636020055086 4.423639749640158
2.060236810063712 -15.251443594372294 4.406137519055324
1.6908742211131225 -15.14764235943729 4.38844497670874
1.380454204808614 -15.072306126724616 4.378762479055162
0.9701460523603473 -14.948321112432458 4.36249889405549
0.6881744159529202 -14.873991825275748 4.3556960774135245
0.27595481660402665 -14.750585971486114 4.345233227873981
-0.01940161302725496 -14.66982536142615 4.341171533186387
-0.34494507026374066 -14.572363490067334 4.337089900599661
-0.7138075101116277 -14.459936608162371 4.33388556109797
-1.0108562410841673 -14.391144725209417 4.33844033572259
-1.3990065275298607 -14.271720080134424 4.339800244574738
-1.7427110949472002 -14.17843967472227 4.3461526693381405
-2.171114026277836 -14.060801075231293 4.356891767172208
-2.393821243531286 -14.008831811917323 4.365500602685148
-2.773974447551102 -13.886707966352057 4.375550680131578
-3.1536539324111468 -13.77376592471161 4.389650063030049
-3.4163974274094473 -13.707560250206223 4.403688644608499
-3.8288942277876883 -13.590012745028162 4.424786684168991
-4.119589965085376 -13.509352284764644 4.441949902105948
-4.539099189527417 -13.381722087462194 4.46691929682636
-4.798125950095229 -13.314642450813453 4.485841877283311
-5.16345848095695 -13.203773855921881 4.511547339048029
-5.560248658242583 -13.080066959780885 4.540897143825881
-5.822190044567914 -13.018967628604862 4.565686820589911
-6.076837397060605 -12.926378294295365 4.584278776398487
-7.244164136234443 -12.689280721545723 4.076327522811008
-7.624957036424065 -12.561293530377553 4.10805477264687
-7.919643623837666 -12.442294212617709 4.130821678437242
-7.891076277242667 -12.50702365350866 4.13601041721711
-8.231617804247506 -12.382771320098334 4.165524673399997
-8.648256670601395 -12.24289637230391 4.204809435545842
-8.909916814357548 -12.194879767669487 4.23581714645863
-9.340677541059001 -12.055894976057932 4.280292122040738
-9.626490252712493 -11.993418405456849 4.314562695553664
-10.01751492573186 -11.872430699999446 4.358290900900688
-10.327500205466272 -11.747356401180829 4.39032235621757
-10.324421556989805 -11.810527942963727 4.3974420109226
-10.648456452310985 -11.69128537241736 4.433403259748705
-11.019149625978287 -11.575004239758696 4.4778109589362804
-12.746389588135056 -11.136849545666179 3.9638884980573197
-13.094144477172907 -11.016457960808998 4.00185613493198
-13.434173485893638 -10.917987271304264 4.041075664810317
-13.425893614292157 -10.95922781445828 4.043144484909998
-13.724336335020833 -10.839538452453406 4.075585135346023
-14.117645345580943 -10.717042270672426 4.1217310404098795
-14.422964145117092 -10.63873103548279 4.159380727553904
-14.838242109878749 -10.516364911108498 4.210153847655046
-15.141533132747412 -10.44549004278347 4.2489691456310865
-15.511440217787339 -10.322317626706687 4.2944617366699855
-15.862940228919054 -10.200799899004501 4.337946147196401
-16.09733596192166 -10.15462707986369 4.369519869854049
7.4782479508413875 -16.79790517642292 4.937180886773362
7.172465387952806 -16.70583701961253 4.893679874372629
7.1703399129534695 -16.724597032903716 4.898049967351243
6.868922517700332 -16.62412247635635 4.854402784958399
-6.0576353887682215 -12.965497589175294 4.5887247651722465
-6.241782886824997 -12.900383539470296 4.603186428731331
-6.557304962117986 -12.806141036497412 4.632261405784135
-6.94474571694857 -12.69281211817612 4.67036229536736
-7.2040643290754085 -12.624500712952731 4.698133356442246
-7.613353936403093 -12.496043615078538 4.74058865771652
-7.970572501128051 -12.38772821392861 4.7798033038807155
-8.252713275806641 -12.314306021553275 4.814162852881443
-8.63024409903764 -12.194728605499725 4.857934971346624
-8.934473148550392 -12.110651066410316 4.896395351695211
-9.322522187164648 -11.992903786847913 4.945528238107731
-9.649154205892284 -11.908856117957107 4.990272530101776
-9.781251439472463 -11.860252544068928 5.006567232656985
-11.100509844692613 -11.570127284729017 4.490112809359719
-11.33104452059716 -11.503743102176896 4.519281060982924
-11.758766428490343 -11.36344525826637 4.572437111416498
-12.02699861009027 -11.304528690607913 4.609663233650423
-12.431219139208196 -11.172455789301383 4.662203276629101
-12.749451620935737 -11.060091424552864 4.7034826301856185
-12.740231858053257 -11.100239342955605 4.706032309737551
-13.078053391859111 -10.98760523825359 4.751395944371623
-13.432082056037693 -10.875166961524014 4.800244743847815
-13.719956085127972 -10.808781723205856 4.843055820026994
-14.140487691800374 -10.679856757470198 4.903411949867779
-16.32144672257758 -10.08791309694143 4.398435879628079
-16.517706353428217 -10.026931267524391 4.42380526827609
-16.845623784223303 -9.935698642537364 4.467176796170859
-17.207312783839253 -9.827563941995265 4.515046628239221
-10.05056236320025 -11.791667043146605 5.044932641760224
-10.34185803557287 -11.700224922667525 5.08461575725169
-10.642618226663782 -11.621640827660624 5.1289163952502905
-11.068846655104089 -11.490476399202674 5.190219019179915
-11.37383286156524 -11.420357523611617 5.238342860902448
-11.750442777192745 -11.301300890161784 5.294699979178734
-12.059088252447054 -11.177924057637124 5.338465975371849
-12.059091924097313 -11.20943439556721 5.3424443808923
-12.37221842728719 -11.117127495148184 5.392073828187966
-12.738296784178683 -11.00238224526773 5.450025854134789
-14.32255175874375 -10.637539573414925 4.9310786388715195
-14.434382527784766 -10.607135738902583 4.947804535532984
-14.832823018964561 -10.483769378260027 5.006618634686317
-15.151778731652872 -10.368799077870023 5.052897539776705
-15.165042453753259 -10.414737612717913 5.05912883175532
-15.465174488480361 -10.305402857673892 5.103218056232875
-15.869024021841518 -10.163124413853229 5.163698488412545
-16.151639673141776 -10.118692628845926 5.210973870817277
-16.56082975280981 -9.964631025461783 5.273023716510239
-16.841862178520838 -9.92779228972848 5.321262117246131
-17.06603112243829 -9.811387047080029 5.353611621097936
-12.810842401004212 -10.990151907428048 5.462926252577084
-13.07376670631022 -10.911910966757643 5.505996160349491
-13.445790479614057 -10.802306704662481 5.567944276212119
-13.768113726933503 -10.715809848210187 5.623372827333057
-14.157270358295108 -10.598348971132367 5.6899309627874946
-14.471915596473494 -10.491877760258271 5.743148379253525
-14.468231789408481 -10.514083414919055 5.744745452443368
-14.793025066799594 -10.411376272466333 5.801326323137755
-15.196322588424763 -10.28621188483032 5.872684458271724
-15.323352528615839 -10.255202661486278 5.8962221342281955
-17.26530851950944 -9.783112993300431 5.388031752159087
-15.499491684386996 -10.205046278150862 5.928338794455157
-15.878735112563298 -10.088851243592874 5.9973050027100046
-16.195093752563327 -10.000208739294903 6.0562547718797735
-16.54686849016065 -9.891257602948341 6.121609591721743
-16.875155282276324 -9.789292857320827 6.183053369665216
-17.12597313863195 -9.718298504442865 6.231094636575539
