# .PCD v0.7 - Point Cloud Data file format
VERSION 0.7
FIELDS x y z
SIZE 4 4 4
TYPE F F F
COUNT 1 1 1
WIDTH 283
HEIGHT 1
VIEWPOINT 0 0 0 2.98023e-07 1 0 -0
POINTS 283
DATA ascii
7.773667101207117 -18.030934147548898 -2.9671867861087344
7.423977995546942 -18.237622029403582 -2.97217183365857
7.091761579247921 -18.453543056297182 -2.9775714405756353
8.69958872642625 -17.511536052271865 -2.955459638320103
8.422189561786045 -17.668907915486685 -2.958929885557721
8.003808545663267 -17.917493135168083 -2.9646220629988203
9.375663460280848 -17.20636687397861 -2.9495180928291873
8.980838875687468 -17.381764820087874 -2.952863288352601
8.69931789937989 -17.54632396218532 -2.9564135945743795
10.311475931484651 -16.58768920552032 -2.93682482277362
10.02278571403229 -16.871501530687528 -2.9431201732890417
9.616321033357835 -17.09202745063461 -2.947361515579966
10.379826720533956 -16.660748147788667 -2.9390744656410033
7.78012124893235 -18.0684082593236 -2.2579427833353067
7.462117401068163 -18.258186141957328 -2.2619874802831332
7.117331687864647 -18.472538784894873 -2.266237194108021
8.69541705313744 -17.5300770616399 -2.245597801192135
8.421302784500897 -17.701233344962986 -2.2493631614995317
7.997904814449971 -17.949790228214432 -2.2550620447361576
9.370411108210405 -17.168555757597414 -2.235805395457851
8.977040399622322 -17.390277303071855 -2.241543584528735
8.695569186195048 -17.55639886315557 -2.2455387160848055
10.350723597424142 -16.58871701339794 -2.2207782314517197
9.97219371492512 -16.839663575207098 -2.2266653286423788
9.622857230211993 -17.044390867437755 -2.2320023621269627
11.241376751568609 -15.989558348096262 -2.206231766071499
10.879976933826482 -16.212115382533877 -2.212262259466812
10.525972120950547 -16.46924492836117 -2.217994196145408
11.876536327842775 -15.767022897830316 -2.195208030772059
11.54475229309947 -15.861662262623577 -2.2010156354627193
13.117838988106875 -14.890989591365395 -2.1725528084075547
12.833620915495576 -15.078261397976005 -2.1778927259484635
12.493698500502186 -15.411396756998068 -2.1841812115818984
12.173839427246412 -15.629141521768195 -2.1899483999821276
13.789944042877053 -14.559392285189366 -2.1596497184817998
13.41065241151253 -14.758900459567268 -2.1669827565676516
13.117249157254601 -14.923461012611108 -2.1725819884845246
14.717850495829838 -14.032731056099745 -2.141091143388088
14.410656612789863 -14.219445140490512 -2.1473344551032776
14.054668467778244 -14.425456003798308 -2.1544591651502714
15.396553855461695 -13.6647745129332 -2.127035073738117
14.970824724902693 -13.905403028005619 -2.135912644744778
15.8345437945961 -13.467653315008116 -2.1178600015689772
15.646802044596692 -13.572898490331095 -2.121859398172318
7.762409194737629 -18.040580407516156 -1.5486486547086074
7.405902807800075 -18.249978750535263 -1.5526762006951624
7.100532733839579 -18.4328834739532 -1.5557249536745164
8.690745061543577 -17.508480284186554 -1.53559596540753
8.409304481015717 -17.672945409042146 -1.539730866096385
7.992185577457008 -17.910702074283957 -1.545625543544109
9.366294178357764 -17.126252877018143 -1.5240480470524576
8.95111445892847 -17.36500641898266 -1.5311902061561335
10.325513246634948 -16.581169094470894 -1.505141669415207
9.922250926617345 -16.814320561122837 -1.5133296148185367
9.6012932053101 -17.004604902914203 -1.5193646296343566
11.258730636838612 -16.051664065260145 -1.4837914643942354
10.927408881412372 -16.246561571479024 -1.4914806079218157
10.555806774913872 -16.454726874775986 -1.500020624600881
11.938374692006043 -15.724566091546315 -1.4649118202628504
11.507689974731758 -15.920029191755185 -1.4773402931556654
12.851253692321981 -15.165837769286998 -1.4404340589830469
12.469035106258707 -15.409851006909225 -1.4507542776119808
12.154488993241614 -15.606258957961296 -1.4590241635663372
13.802440416218504 -14.615601980324861 -1.4113600676143778
13.462366178004173 -14.810594782242864 -1.4220863206203755
13.10547746469427 -15.033620921094409 -1.432586645294975
14.726560372481613 -14.08664415802679 -1.380436126337794
14.448469364041843 -14.247715400065792 -1.3899299746905087
14.05875521154252 -14.472283765203828 -1.4029455542036882
15.415441436624194 -13.694906999253401 -1.355748252728435
14.983273561123456 -13.947345999845986 -1.3712364110348167
14.727394863259358 -14.132700002165247 -1.379446902558294
16.364191868464214 -13.152056429942732 -1.3197800801259312
15.963912631328023 -13.385540245243332 -1.3351475061614753
15.641886166588103 -13.58478247025184 -1.3470259706299588
17.265315832613982 -12.634707694834576 -1.2835379321459435
16.96812981073016 -12.811338115466675 -1.295590884796998
16.60461722094917 -13.02989463546614 -1.3100431507746628
18.21824645194806 -12.084370150587004 -1.2431492614367325
17.929342691037306 -12.266416297824343 -1.2553814826949516
17.51846092646533 -12.505821582314114 -1.2727392591043434
18.915843366443283 -11.699426293654243 -1.2120427347462828
18.48376662155312 -11.959093351878172 -1.2311365627069977
18.219892668065643 -12.117598171658683 -1.2426108803548526
19.828873160401226 -11.170653113991232 -1.1701542098753994
19.494102576891187 -11.378548168821817 -1.185540207866638
19.138232781373823 -11.59432288596746 -1.2017251070837416
20.79277597422828 -10.62658288367155 -1.1239917320885298
20.445756740353353 -10.833891195780355 -1.1406861526671195
20.1192059040293 -11.036600379670714 -1.1561242303070345
21.451928343877228 -10.26252335429579 -1.091388093570987
21.0421573119816 -10.502713565653682 -1.1116196085055394
20.766574476184033 -10.696010384858388 -1.1247820230406196
21.839652178400666 -10.047634357864387 -1.0718918230077785
21.6783952628119 -10.15105832869989 -1.0799303470896056
6.988274822355702 -18.475021603454337 -0.8450279389836821
7.768671034857537 -17.998913997045513 -0.8391746540757055
7.368751399975464 -18.23079630828222 -0.8433614562640686
7.018652182288415 -18.47342504474589 -0.8437554324143866
8.66817789975045 -17.47954490704291 -0.8261912422959921
8.344625297783706 -17.67100729243224 -0.8310569454577772
8.005841918952154 -17.87378964833685 -0.8354646886241355
9.619729995271294 -16.939173700191606 -0.8068666376467437
9.338852163710088 -17.12108344082972 -0.8117182698407079
8.923798439711138 -17.35447608516952 -0.8202495713880595
10.320448307264927 -16.54526728734534 -0.7890973471531717
9.91417351716349 -16.79413523741129 -0.7985083943884388
9.620281575162203 -16.97006179012646 -0.8050184978007877
11.244205514354913 -16.026984756647956 -0.7615700041627782
10.897363807513177 -16.241806916236364 -0.7713066549222538
10.547080374418046 -16.445332398685046 -0.7812663658698851
12.173311255467535 -15.527580496132728 -0.728128619120785
11.918311473191743 -15.7060446709621 -0.7355586678480532
11.50004815423253 -15.906043251523998 -0.7519094603346257
12.8597650485522 -15.11262143296168 -0.7028201243006322
12.43701929502284 -15.40025634211666 -0.7170657980018891
12.151909513054509 -15.603191993901609 -0.7256575938349368
13.80963823923795 -14.572653762717398 -0.6621628234691974
13.40752871595413 -14.801772015335953 -0.6798771388197549
13.085390845501903 -15.00163402400708 -0.6927672148633084
14.702991029206588 -14.055572276896541 -0.6203096142112521
14.406444368015515 -14.231522970126411 -0.6343872215052602
14.045960512523832 -14.447863202295174 -0.6509338443904864
15.659842517135777 -13.504633675513194 -0.5711928154340675
15.371940276485242 -13.68219843098524 -0.5858943521444484
14.96082154165025 -13.923774484436024 -0.6067574656309207
16.357462587335018 -13.11021261409958 -0.5325005810146128
15.9398991959764 -13.36231558163607 -0.5552667231226875
15.659944171975026 -13.536896975659173 -0.5699056367036215
17.13943584560993 -12.634738074008403 -0.48794953093857996
16.890857230864665 -12.806923511286515 -0.5016237479557162
16.58217124294206 -13.010419890482247 -0.5186411675201306
7.0654366921184035 -18.33945348196623 -0.13694581149671414
6.930038155972877 -18.43173197469397 -0.13625882670405876
7.760157123973926 -17.946026052105037 -0.13010220358176694
7.320419159912605 -18.196846622623095 -0.1346545081853554
7.064310156199234 -18.370607622756783 -0.13397001367505856
8.700665244408968 -17.400474446107133 -0.11600233733612697
8.297821053041513 -17.635677545530264 -0.12273658826876055
7.9751900675264 -17.826842445305818 -0.12701733040989538
9.640112188643053 -16.87886416104324 -0.09273580218760458
9.319956311744065 -17.062392761297197 -0.10087401711863109
8.939928823514682 -17.276648509138067 -0.10994569380799968
10.092295363967706 -16.59760717100913 -0.0816319131883203
9.855434833803951 -16.75910341232575 -0.08638576426732403
17.2718749380246 -12.587764725807991 -0.4789852455519117
17.135697063934803 -12.698375253994453 -0.4860408775049836
18.236889852597795 -12.038445038805206 -0.4188420853124657
17.91139461474881 -12.234004792572648 -0.43916012867332155
17.511303487425057 -12.465904148757954 -0.46390439455051946
19.14427327157763 -11.487377468129665 -0.3601285338145641
18.925807965454723 -11.658626295735125 -0.37340816842522173
18.46674606339592 -11.91678257296134 -0.4036910675305303
19.815584414676348 -11.142559103382077 -0.31308027620655166
19.42651033119806 -11.370630364554907 -0.33971757086275556
19.12165897699866 -11.562726187125621 -0.3598889901845381
20.773342778273 -10.58981491017849 -0.24514263202985198
20.413092298882248 -10.809315461774661 -0.27073833077243714
20.082470943204704 -11.01288992433619 -0.2938336743026069
21.69945484514116 -10.066945267021993 -0.17653365906166263
21.427400473186324 -10.225701946015166 -0.19680799452840114
20.97933743972926 -10.497555591375049 -0.22953245201625005
21.901991355682764 -9.961071569090727 -0.16102799821019786
21.695239438062448 -10.105897834758945 -0.17610175709505382
6.926687306015479 -18.558908239300482 -0.12410835778359575
10.552444019030016 -16.328916392850356 -0.06714592926086027
10.295681671614435 -16.506518332182992 -0.07303060930196237
9.966346214163885 -16.714583649958634 -0.08157022289799087
11.223409196937396 -15.97547251395516 -0.03987184451205694
10.830683882229845 -16.21056125306324 -0.05385254131145878
10.550962313974136 -16.368217470713137 -0.06398923941213308
12.175432841033869 -15.428707713232566 0.0008708003239092932
11.827087917668342 -15.6382737713246 -0.014033381885153684
11.478062002167098 -15.84386320849883 -0.028502494401946965
13.10218770353775 -14.912571035420363 0.048149144900671015
12.832867005349787 -15.068460133008982 0.034285355122448014
12.427543266485287 -15.308781023963997 0.014690278863807027
13.79752326757959 -14.517253612601968 0.08707061362997193
13.377495106242762 -14.759893053646346 0.06345202481533052
13.103119317037546 -14.940869173913997 0.05026906870168357
14.73935005965283 -13.971862218257954 0.14432001245137238
14.333488655009452 -14.210716389624972 0.11919602189692258
14.014328418142073 -14.397774912069966 0.10009774812925532
15.639940390657566 -13.452731576730754 0.2046672666744418
15.364729593439817 -13.624508679054316 0.18652930965431258
14.976205149958274 -13.848376078276921 0.16048977269769793
16.589848752574856 -12.899995277277025 0.2735531226643708
16.31073058551497 -13.074658293030877 0.25347377219633316
15.891310246648578 -13.323934069795854 0.2234445316100011
17.239816555243916 -12.54208956110935 0.32488562633401585
16.892751340402366 -12.74356154365168 0.2977739598555842
16.589287791308717 -12.931080450313237 0.27522676473085994
18.21186851659476 -11.994234785110777 0.4051935235728461
17.8705909304646 -12.193418741669971 0.376800569696083
17.51109192728911 -12.413214916085723 0.34801913418595953
19.163961220238882 -11.43570745522229 0.4875314077484627
18.84249610237601 -11.63387830986565 0.4596924080750462
18.456285687395532 -11.85639748820667 0.42614030240455447
19.721427851680104 -11.126166871497338 0.5385895085062211
19.392959874723573 -11.331849852009572 0.5093715256501219
10.547832241613477 -16.31144624192787 0.6566582446605711
10.264712774041316 -16.473670780603282 0.6457016361421695
9.856510918833505 -16.7064564426561 0.6310327952652215
11.22037696863558 -15.921810643894966 0.6857494700069902
10.806473654842511 -16.16260822552711 0.667464923978196
12.180531438504397 -15.381965040414537 0.7366026209150474
11.762734536967258 -15.612529266516933 0.7129765413488482
11.480923685800063 -15.775953665854454 0.6986806874222458
13.077381694606654 -14.859939967589037 0.7902640658914128
12.796839024929952 -15.029967501525913 0.7733870250944057
12.418154554845383 -15.246004513575057 0.7502955046354702
14.033684419204542 -14.31729884482525 0.8570081001595691
13.740971316486535 -14.484490922960015 0.8359000752322077
13.360252032341386 -14.710980259745426 0.8102884141925739
14.72815893596926 -13.91994635959615 0.9102906545156983
14.304356723227192 -14.164229523831327 0.8774824809192161
14.032238819377396 -14.336991251464617 0.8586197827770659
15.639305251168372 -13.393492967872398 0.9857844021183237
15.281094282271715 -13.608460981950218 0.9559881039281319
14.948891793091091 -13.80189066416969 0.9287080182330443
19.90232803607038 -11.030248706656398 0.5556610039404841
20.74587550045696 -10.541917268483813 0.6354504858259227
20.356578590440154 -10.769959894477962 0.5983559881014853
20.05042989960228 -10.965682378141713 0.5702965056445843
21.69884989554903 -9.991430220561755 0.7293221596589494
21.346705096672416 -10.206651578894803 0.6946492369982473
21.014752263376423 -10.403855768587341 0.6621689790680301
22.220902995048537 -9.718913448115416 0.78318578971228
21.93069633939094 -9.874440342193747 0.7532895778574056
7.1561028572020575 -18.198714186187033 1.2951217610636863
8.015404930366262 -17.702962912043294 1.3027745454996622
7.709460418502291 -17.89579642866188 1.3016335885822206
7.348068316453286 -18.10732398219752 1.2991115824709212
8.499312409573124 -17.446612689132344 1.3147249228165432
8.243841333066898 -17.595023350129967 1.3101654191322294
15.742417809585751 -13.347183898893954 0.9958178235896766
16.60429447735621 -12.844317278372063 1.0736932104212644
16.26608031426597 -13.040036239099216 1.0423884290148537
15.908190747023914 -13.25051380846883 1.0103582652738887
17.51850168700351 -12.303383204158465 1.1619575462627862
17.222289188604595 -12.486347134054073 1.1333034718150126
16.841212739035146 -12.710619567633037 1.0964967181335417
18.17716647194806 -11.94262215177112 1.2312621168230296
17.81078755284991 -12.156726616891232 1.193327955061017
17.5172241637131 -12.323904642095373 1.1632160138903727
19.148499180258867 -11.38749656648071 1.3370896998388484
18.794861372661536 -11.58940509537203 1.2979000204665558
18.444376392270986 -11.80669751104738 1.2608687354122043
20.09592869651402 -10.834999771435589 1.445341089268343
19.77004666762143 -11.029929378709493 1.407811906101355
19.369807800313943 -11.26065849137348 1.3620208951864647
20.749273921057046 -10.466672216273334 1.523794931387664
20.292870635056275 -10.729466301693192 1.4690698264038793
21.08232331757949 -10.256818588596401 1.5635245569302616
20.99770540030916 -10.326082730662582 1.5541458865704443
21.706574691702087 -9.912754832086911 1.6421322164155492
21.286169954959117 -10.160589706068071 1.589799003717547
22.62606297847685 -9.382150579035864 1.7602886135387164
22.26927586110199 -9.588274406254945 1.7139978686375392
21.938824673308787 -9.78703271985884 1.6719492313851947
23.549714111648786 -8.852935177523849 1.8831488179757518
23.27206554302882 -9.012999173347813 1.8458906500326324
22.874785846961725 -9.247663976311927 1.7933233577863947
23.75573511709567 -8.74125986564178 1.911318578008403
9.728619112186236 -16.67222260690793 2.0756808739618102
10.54952293540618 -16.2591412351223 2.124630321650518
10.24863206051276 -16.462567208148663 2.114579528072445
9.880738440637163 -16.739276412201868 2.1089111306381034
11.472442115857408 -15.727619020411213 2.179809175649716
11.186491899408308 -15.893171309515235 2.1616511374169733
10.753686779056435 -16.146028610183645 2.1365677143176707
12.152900842417369 -15.34351807518886 2.2296902717853313
11.751692294549882 -15.57558514314229 2.2004732286821924
11.473208164259757 -15.767103134614654 2.1862618826068663
13.10846756746844 -14.789789212104223 2.3082226430411423
12.672142659741425 -15.049408435128099 2.2718809948906853
12.407240641989969 -15.222968717932483 2.2533674962108132
14.01015251640168 -14.271867694974288 2.3942933002963254
13.724316957150377 -14.459304811697066 2.369183539265285
13.321691376624202 -14.695837283629535 2.3317281658192806
14.626746621006683 -13.94431439350145 2.4627635193907795
14.293892324467185 -14.153893239541526 2.4297554031168427
14.775434087892029 -13.950346124824922 2.49117294725885
