# .PCD v0.7 - Point Cloud Data file format
VERSION 0.7
FIELDS x y z
SIZE 4 4 4
TYPE F F F
COUNT 1 1 1
WIDTH 657
HEIGHT 1
VIEWPOINT 0 0 0 2.98023e-07 1 0 -0
POINTS 657
DATA ascii
-22.898438290497833 6.860744402370798 -4.116596089300112
-22.93135861901814 7.053984446309453 -4.119713263982681
-22.83767200519788 6.155162471540239 -4.1098620029668265
-22.877731883660065 6.5551383388956985 -4.113966406246506
-22.755014342001424 5.417733007590927 -4.102547506793225
-22.80956804161366 5.792907447123797 -4.107007524585143
-22.675712277046035 5.176396430615457 -4.096745835056314
-22.951980047711388 7.514297355461176 -3.329463042832254
-23.01794448034412 7.897846412773848 -3.3286766775230276
-22.89974008447841 6.849802916433045 -3.3332507030218808
-22.95537136070847 7.209847217014305 -3.3321488130871124
-23.04167647474156 7.5556488881287915 -3.3323107396663008
-22.839475602237087 6.143339652064492 -3.3374129717646555
-22.893710151027435 6.496935647910682 -3.3361608820868116
-22.78935938061538 5.437864622607128 -3.3422585377952454
-22.819256722663596 5.7906434844583465 -3.339973028943625
-22.72699986205398 4.695586050673368 -3.3473763970355574
-22.78374813145726 5.084749468271104 -3.34551823057779
-22.58797783245098 4.004838876101788 -3.349542507575712
-22.691793228247573 4.443597107502132 -3.3486904286830272
-22.464494295815104 2.973415988439164 -3.356455186812062
-22.499539215600265 3.308646975287218 -3.353944378687615
-22.548111763186164 3.6811997376763856 -3.351580803967634
-22.41228661514781 2.267075097688995 -3.36284529560665
-22.441974245908014 2.6429660293103256 -3.359479583019771
-22.486303673571793 2.973325764839696 -3.357254359303318
-22.347648225533206 1.5633366473173886 -3.369142443549322
-22.37854460663146 1.9158776147218308 -3.3658945222464687
-22.312678501179622 0.8569011278301044 -3.3769717138250015
-22.33772242775951 1.210297031890334 -3.3732921028406038
-22.273780606436905 0.14995795318138194 -3.38508023657325
-22.305613878030655 0.5050929364922512 -3.381418775046683
-22.208040722718128 -0.589274651069438 -3.393088485802786
-22.254734934517302 -0.16586563984703906 -3.388788712098496
-22.2962245759759 -1.26648626427887 -3.406324975892345
-22.23195800863284 -0.9610894663388573 -3.399408239500983
-22.16366090517648 -2.054190628026593 -3.4135256620565344
-22.2908471713127 -1.618630409112399 -3.411484618020625
-22.32525627615765 -1.2652874037008637 -3.4073816959943386
-22.042981555984476 -2.670618430836627 -3.418919195565148
-22.114846148810834 -2.2497852522589596 -3.4148172720602106
-22.32291507390259 -1.9850542635948647 -3.418333590361125
-21.995232229433633 -3.3662287391071004 -3.4286726899244706
-22.02652672746901 -3.022481043429721 -3.4240804430803498
-22.005679889803773 -3.6552048491944484 -3.433960377729814
-22.901180648870447 7.546551026409507 -2.536173306806367
-22.954114045929302 7.896461864121479 -2.528547880081306
-22.851252551740203 6.839389450520521 -2.5515632081480426
-22.885657800403283 7.19146561895783 -2.5439703188504206
-22.801310836645342 6.133613132309813 -2.566604162965569
-22.83828556510412 6.513342998219738 -2.558584210844736
-22.737235910011833 5.428922488486007 -2.5812506083563456
-22.773362273355804 5.782123628432972 -2.573963621298138
-22.690864346751784 4.723517673709129 -2.595625921448952
-22.722389178604207 5.076667304351528 -2.588500325795094
-22.62285523949755 3.9710445881469076 -2.6105158765627134
-22.656034200983783 4.371140045039187 -2.6026472263535307
-22.575162613299376 3.3135695222192276 -2.6232186823949277
-22.601437966421972 3.666834895736216 -2.616443568897657
-22.527236720626636 2.619893105351933 -2.63627122833733
-22.565497438698024 2.9616994634446656 -2.6299323333327536
-22.422856399363347 1.5512511884160536 -2.6555811774674054
-22.457943130418425 1.8846404669012835 -2.6496518939789966
-22.492785064340353 2.2541232480985944 -2.6429935467232393
-22.37047576805269 0.8473028404448946 -2.667829116685039
-22.410440480929783 1.2149274564228345 -2.661500045001527
-22.44385735032962 1.5485965762618217 -2.655676535734848
-22.31121567201546 0.13810813677144695 -2.679734396821755
-22.347680259994007 0.49193271033677677 -2.6738505810171556
-22.264186046169808 -0.5653951303393132 -2.691151206211507
-22.3004385578522 -0.21352605156369409 -2.6855101319410886
-22.248013835722105 -1.2732120277517345 -2.7022746800173545
-22.26247432319062 -0.9203762071056855 -2.6967864014123526
-22.176322554222853 -2.0158961571151086 -2.7133625699350308
-22.231529786353875 -1.5832162469935789 -2.706981086025811
-22.111295485417433 -2.682730474990062 -2.7229051336237298
-22.141235946742324 -2.329710787327828 -2.717887829903597
-22.031912148329127 -3.388027942885202 -2.732549108567604
-22.080762727728544 -2.9984607515116877 -2.7272864240791512
-22.01724090881747 -4.006326995905518 -2.740771350496376
-22.01814177698525 -3.740720839528868 -2.7372682669608315
-21.401402784588587 -10.264341094387442 -2.804540996574102
-21.373603050240376 -10.791936461487625 -2.8085675593830155
-21.41027018568141 -10.438348316925946 -2.805955426918239
-21.328118538388107 -11.496009017383374 -2.813615144248256
-21.35659083742222 -11.143319685780233 -2.8111548137539812
-21.25853818704536 -12.24459467978279 -2.81851783352316
-21.309147958659956 -11.814408189402334 -2.8157957849292945
-21.21490074261177 -12.907554494657003 -2.8226286865692076
-21.2484749199198 -12.554934154308699 -2.820529956507001
-21.094063361131475 -13.96555674260797 -2.828381345705137
-21.15060288899905 -13.619953731663122 -2.8266561116197133
-21.203020049828318 -13.259552300293132 -2.8247604513502447
-21.060842397179055 -14.672840943838171 -2.8320775629430557
-21.0948802499181 -14.329881243753332 -2.830403654933209
-21.124223727976137 -13.963929620128262 -2.8285204913415027
-21.01752652608853 -15.379085700548197 -2.8354422931149434
-21.050358890553255 -15.024012678294238 -2.8338346758071786
-21.08600636142559 -14.668767710344557 -2.8321874372722657
-20.948978394480708 -16.082947092566215 -2.8383853375094805
-20.986112382588733 -15.72886881874122 -2.836945579328868
-21.050096137941118 -15.380347556325972 -2.8356263647849382
-20.941825499277527 -16.79018276393567 -2.841451569321083
-20.943917389049012 -16.435164736196633 -2.8399252399471115
-20.936884601909902 -17.11952178642725 -2.842786356918342
-23.52801766465412 15.642528910192848 -1.3832683165324298
-23.555064367922945 15.99550934924362 -1.3656590486094793
-23.469787936616672 14.94619836573056 -1.4177450000567806
-23.508104773083552 15.290372084062295 -1.400566019195138
-23.397920669722094 14.206926357572172 -1.4540035666179247
-23.43337033556575 14.596043256303673 -1.4350519486552942
-23.35087377701746 13.515246575892942 -1.4869127037937044
-23.38333751614369 13.881692463822933 -1.469390562506659
-23.240842002438125 12.48056649698077 -1.5360270925859516
-23.300480935767297 12.821990017631865 -1.5193921583056342
-23.346513227969222 13.212630747605175 -1.5007674853043096
-23.256248152012226 12.263971464612247 -1.5452009691591375
-23.277223575371085 12.472336518786364 -1.5355121203015467
-23.051525540844196 9.650343201230173 -1.6602277410800448
-23.080497938213473 9.929363949769742 -1.648232339731785
-23.00945805104164 8.943956546487836 -1.6891795972139603
-23.042725457620833 9.309221312582629 -1.673979463884581
-22.9381259124854 8.194019788377133 -1.7197382387250604
-22.980769853235962 8.59137946260258 -1.7035166450792203
-22.895503722139242 7.533655959869245 -1.7452731855595673
-22.92649733090619 7.905853148043509 -1.730771131760815
-22.822626545842724 6.809711160386094 -1.773100334485125
-22.86989174340269 7.218102191029445 -1.7573405164262441
-22.777769348804508 6.124532473332495 -1.7978288027440568
-22.804201387105927 6.47597018213963 -1.785166346486534
-22.724557158747388 5.418680320663373 -1.8225351724100125
-22.76306929527915 5.770413944791221 -1.8100017637336479
-22.661491203215384 4.666274886084846 -1.8479358404191488
-22.700160850018623 5.067668968381211 -1.834399461704657
-22.608822832846666 4.02187110403106 -1.8686886019752298
-22.64010027847771 4.361770117221946 -1.8577713322909852
-22.56599941059474 3.323644158846616 -1.889704346036297
-22.579795387768907 3.654461097821755 -1.8801154968656197
-22.464955069855215 2.244638251222379 -1.9211027602721193
-22.498119627713656 2.5980748342271167 -1.911085101701842
-22.535443184065514 2.949242995415832 -1.9007784689348148
-22.408069197628024 1.5401397978275404 -1.9398067900536542
-22.446569248085517 1.919024440836007 -1.9296053357766998
-22.485347165671723 2.245496949795053 -1.9204285841366864
-22.344543514596083 0.8351718644716573 -1.9575309453312837
-22.38237368706533 1.1745579868867093 -1.9488830102116295
-22.306378414806133 0.1294599535066292 -1.9732049899695294
-22.335808000521535 0.48228448765030585 -1.9651572878156223
-22.231846060860335 -0.5757932243559587 -1.9887867893091011
-22.291959328568225 -0.18141633394773216 -1.9796064059610496
-22.23231056955493 -1.2834842137295273 -2.000678952359664
-22.233705851324984 -0.9208115748592512 -1.994675526496688
-22.156764213729257 -1.9858300048369544 -2.013667952853679
-22.197557052580795 -1.6445634053720564 -2.0073669738418802
-22.077612454056798 -2.6918855485037376 -2.0255213791581674
-22.13139294084688 -2.3395198384860985 -2.0193083879440614
-22.026877402661306 -3.397129645568023 -2.035127547917761
-22.058565097497226 -3.044347049000125 -2.0302892877916205
-22.003734387253996 -4.006776410972888 -2.0417239216369136
-22.0135795326131 -3.7487653086899546 -2.0390497470700533
-21.472494707463138 -10.21998436750832 -2.064310338731225
-21.446784132407853 -10.813293719112432 -2.06095210483144
-21.518103488499694 -10.444853794782857 -2.061549992940869
-21.395276886560612 -11.510327030883124 -2.0566681381283685
-21.468405558741736 -11.14622809772349 -2.057752456943586
-21.33461927676487 -12.215027613452463 -2.051534139519938
-21.404249542875167 -11.83569856785964 -2.053438840469275
-21.293981921567955 -12.922029304975112 -2.044881177869477
-21.32365368508297 -12.568707572332862 -2.0480894878413807
-21.22273333146458 -13.623376673407744 -2.0381211742405316
-21.27521351751486 -13.273306055628925 -2.0411981938187433
-21.170510468494545 -14.321483758472533 -2.030038218139416
-21.228821401754423 -13.94355468351515 -2.0338048656082237
-21.127726280452414 -15.033848483974579 -2.020674282191667
-21.158852650913865 -14.648788998652398 -2.0256715601199544
-21.015679463280986 -16.095225128835125 -2.0062861119973956
-21.088764514476903 -15.738963695195343 -2.0105142419290685
-21.157068597408223 -15.383094298793955 -2.0146554089569704
-20.91097030537401 -16.75176916441653 -1.9972028114389375
-21.0171398527355 -16.45005282961835 -2.000196307113067
-21.094927848344902 -16.066347606808268 -2.0050254203302864
-20.892794450526207 -17.433567241950556 -1.9851702841387993
-20.963025951690327 -17.172959746525397 -1.9885076046073262
-21.02594530284297 -16.807960432657573 -1.993775825501679
-22.90547179466599 8.059731300982785 -0.9243474968014294
-22.90781451596172 7.51338734704483 -0.9521369350695936
-22.92656414672572 7.847144240981386 -0.9340509722009125
-22.82460946457652 6.816508442365995 -0.9914608026267491
-22.878442640910418 7.181288768617238 -0.9704271643908609
-22.768432751647847 6.126136149389893 -1.027332955996881
-22.83913374409571 6.466504681168411 -1.0071745381373183
-22.725615219931445 5.39501456669506 -1.06254719827367
-22.77893925463385 5.7597629119802995 -1.043216922684693
-22.678877114299997 4.703717883737484 -1.0945304479871178
-22.713734954542968 5.08962870546096 -1.0763591488548387
-22.537819977229383 3.6449743904632537 -1.144768408750536
-22.587119980044466 4.00857919307305 -1.1278713811594467
-22.663671303040992 4.35000708693217 -1.1097277445146985
-22.464224865554645 2.9015048629767004 -1.175904691152697
-22.566639308404238 3.2912915906490423 -1.1556027848001325
-22.62974573369643 3.575293160880483 -1.1413128967835526
-22.460114682990508 2.2312433101759845 -1.198020904818172
-22.513677093150736 2.5985364129034108 -1.1826835446680106
-22.599851289774186 2.9417732750230283 -1.1656034839880172
-22.38693091267139 1.5301865977120954 -1.2237983517766713
-22.449255517750707 1.89218172152686 -1.2090542766177625
-22.508586326334576 2.234546381203591 -1.194705586536073
-22.355082184525056 0.8269391317082428 -1.2448737170620303
-22.383985087900655 1.1782134966670794 -1.2336768738408947
-22.469793468077697 1.527627209426806 -1.2183359001447343
-22.278659072450846 0.11925933242419773 -1.2669481361761425
-22.355551995111234 0.4600085091931443 -1.253825454474545
-22.24760870895828 -0.584717643653374 -1.2838012171008792
-22.305308984176527 -0.23929544262341462 -1.272883944256557
-22.168778626399618 -1.3157596209765934 -1.3021503714790341
-22.26501919488843 -0.9525366584933748 -1.2894178447810076
-22.12806463518028 -1.9950203777617987 -1.3149290648559497
-22.196202793314082 -1.618628443613088 -1.3049863217467006
-22.097308110933586 -2.7027809736884203 -1.3253081401044866
-22.155089421239172 -2.35001116745637 -1.3175337799854554
-22.035596763798267 -3.4071785942606154 -1.335551958783873
-22.06957669722062 -3.054845393239236 -1.3305064660694954
-21.959523714785213 -4.110240856286961 -1.3445564608252956
-22.024839189023716 -3.7329622822648916 -1.3383738161352636
-22.010718406391057 -4.34882680891663 -1.3420004738954363
-23.549090681977976 15.67607127163819 -0.4182525313567318
-23.446666898712603 14.842302487151478 -0.4811743683865579
-23.518994190172844 15.23370954863374 -0.45058759010923843
-23.39590175830189 14.189977115409134 -0.5280725191503577
-23.455075299184568 14.586679168135806 -0.4982407148229435
-23.268398061286753 13.146263286426379 -0.6038877667727882
-23.34453246457621 13.533363485321036 -0.5744954487213625
-23.410758244469623 13.871534385189058 -0.5486803389470456
-23.248278771867362 12.467227448847742 -0.6487339475500562
-23.327579270152917 12.79173180876729 -0.6237165305315759
-23.391336312772182 13.231363040777623 -0.5919161789422738
-23.235718004042454 11.75399502623044 -0.6942253608118336
-23.25137277468404 12.09734930802844 -0.6719124254249436
-23.33958921424103 12.51032633138964 -0.6411248191102108
-23.15861217420632 11.012038280100317 -0.7437737577003554
-23.208382836407683 11.406435122327439 -0.7170611193347327
-23.061697548574173 10.284951162973067 -0.7922950956281567
-23.162176311062776 10.692259450993202 -0.7626329699235284
-23.025271694256165 9.635213756987854 -0.8317116793501405
-23.096891275139992 9.999475311888899 -0.8067980567492457
-23.001363131682755 8.885929965118244 -0.8746947294724767
-23.062187950337222 9.282318701381906 -0.8493143266181282
-22.957719462874895 8.254810670794418 -0.911025014297042
-23.017326314220462 8.607678976218367 -0.8887518699337873
-23.00017054678234 8.024460743033186 -0.9205110249769244
-22.317155661567597 1.4373029999305005 -0.5135480137222923
-22.313139264703175 0.8175437510097305 -0.5334036014081787
-22.324935483557788 1.1419799129342851 -0.5222696138184308
-22.255524497155626 0.12102288196018085 -0.5584791135694838
-22.322150412835278 0.4504296024631125 -0.5429336893823264
-22.206650527401962 -0.6196712629812117 -0.5806832649820013
-22.262225060901642 -0.24205273677128636 -0.5666049032964873
-22.15110851582668 -1.2857786213673883 -0.5989964712815143
-22.222405404343824 -0.948249060517765 -0.5856196269553942
-22.09850193285796 -2.0052059280569403 -0.6149987085566986
-22.13831202193842 -1.6519071721021268 -0.6061202370173482
-22.050105730288085 -2.7468542366887077 -0.6275095550214669
-22.126001554328752 -2.3282068777706537 -0.6158904339925266
-21.992251191111098 -3.416027570083501 -0.6373077742659152
-22.02616424863231 -3.063042047410538 -0.6322065202143827
-21.93345807733519 -4.018401423495499 -0.6445348272164284
-21.980897696725123 -3.7304071571598083 -0.639446246161357
-23.078293837057792 10.987042014989468 0.10985888982543113
-23.039461109164886 10.334226983851332 0.056061431155707275
-23.119287717135396 10.66960968830633 0.08872513962216155
-23.004516292434435 9.588473799160642 -0.0026562407100767516
-23.051381814816708 9.958637540161368 0.028842153077922816
-22.93608611193006 8.926789149251867 -0.0563178166906515
-23.024224799909486 9.281166746185585 -0.02314577737985868
-22.892635387238922 8.149612038866449 -0.11385746177542444
-22.96983541404362 8.579285046459042 -0.07753267097159222
-22.865440334555448 7.510980135890314 -0.15847930691633527
-22.908509943568436 7.906292908088892 -0.12867454349599905
-22.770695212567652 6.808407263646044 -0.21153066619998384
-22.842578785668778 7.201792399152053 -0.1803633060642067
-22.729680540626475 6.125016225281232 -0.25631313017782587
-22.763698852566463 6.454935077899172 -0.2336695512675413
-22.61466114599206 5.045520995072577 -0.327493971082256
-22.672171916512536 5.387652057965383 -0.3034596075242235
-22.728301902637714 5.753055551169716 -0.27782043628646935
-22.55345178393315 4.316738319105518 -0.3707108061976987
-22.61650024663831 4.694169557726754 -0.3455444168318169
-22.648983197637214 5.045274167577798 -0.3241951889637993
-22.492966672500987 3.6381952938950426 -0.40888247971651115
-22.548443723990847 4.04264333021754 -0.3844242000724001
-22.609069946491445 4.342381058179708 -0.36398823987953044
-22.453125985482426 2.9295221431253773 -0.4438132104483907
-22.525810212998795 3.2826940234033466 -0.4213946971561531
-22.41548451440345 2.2263161167755143 -0.47557534846274985
-22.465540035801975 2.5970141416246038 -0.4560683208727987
-22.581154424917553 2.9462085176951063 -0.43029182306077285
-22.35101016742488 1.5483976261754706 -0.5063514975832741
-22.41126394095157 1.898514020427446 -0.48799551816971576
-22.373869726457308 1.2826694124074765 -0.5128230732456105
-23.524788852975792 16.160581992606158 0.5934541627843362
-23.372648467798754 15.245739563308753 0.49715162656820056
-23.474727479422505 15.621921095376162 0.5395738113171666
-23.54813228855726 15.976576320077815 0.5780019579197573
-23.36097111465271 14.56126549341489 0.43421821151334417
-23.399346649124187 14.914708751719115 0.4690921914194268
-23.49331629103114 15.330494003640553 0.5141525562399236
-23.26948494426767 13.802430349477978 0.35975239387359714
-23.33486604930755 14.221597359868063 0.40190693643183817
-23.393034044234593 14.563933950833484 0.436957972006899
-23.23779776684418 13.106724715868891 0.29703048311381464
-23.29700520067535 13.52674597448898 0.33799509291418506
-23.188268179146732 12.42435532975378 0.23539907244354374
-23.267141865671064 12.805906088505346 0.2739196318588575
-23.326910660908002 13.145405361159282 0.3075599342319375
-23.141918225330905 11.771394996559927 0.17786982322956302
-23.2133547453717 12.110493812934605 0.21155407921189173
-23.11063844828645 11.117502854555413 0.12290763161517093
-23.165755947376006 11.41369082979211 0.15111492657940628
-23.189787094525997 10.98618157766271 0.11933808167469051
-22.688497774880588 6.448318083653724 0.5409397556663791
-22.7004648334773 6.582199746864378 0.5522841162504664
-22.63504544007912 5.739363963867149 0.4839419099557447
-22.671067280325985 6.095385143512589 0.5134696070348936
-22.70544954933525 6.446416016635608 0.5429673046292125
-22.574609301397164 5.073117468086311 0.4318428329866886
-22.609886326487104 5.345385683574111 0.4542906957110384
-22.52696360819995 4.3334679487058825 0.3798730616245005
-22.556869343045378 4.684932227174238 0.40516503157944017
-22.468843300509988 3.62814177441907 0.3319968857348492
-22.497859056692942 4.016976090347056 0.35765345992232156
-22.411454575530644 2.9233133586725413 0.28764658171228463
-22.450650663646893 3.2939603117420853 0.31178101879579234
-22.35833511630857 2.2187383413978106 0.24736117456397322
-22.397281548142534 2.570825186911104 0.2687578997851392
-22.301221343157035 1.4774282223819624 0.2087115772802095
-22.33823300052443 1.8660941755249176 0.22942975011488675
-22.253423173110054 0.8121478528109098 0.1779527533787313
-22.274032615046846 1.1606272139740033 0.19302304002721105
-22.19547023829257 0.10369699155988998 0.14794789072670378
-22.233338910189797 0.4556259021355935 0.16359510196543248
-22.140979574607915 -0.6493796823128741 0.12127636626514215
-22.178529427021918 -0.24979242913679545 0.135991159098662
-22.08594984025466 -1.306760371567829 0.10059926992335111
-22.121808451404057 -0.9548870702453351 0.11204431589986097
-22.03447329515195 -2.0121256125346796 0.08327657406427624
-22.06046219740775 -1.6574949182058893 0.09138653347901293
-21.94282171349522 -3.0708996657516083 0.06257644876380031
-21.980755106700443 -2.7441760870452883 0.0694229099579835
-22.014464386734865 -2.3646157170314117 0.07675777864793654
-21.898365873335063 -3.7804153527448356 0.056168206493511175
-21.9321500354267 -3.4223882323282244 0.060583673282497585
-21.964843310981518 -3.0708741379922557 0.06561482131746565
-21.8247384249812 -4.481973489404224 0.04972652416994805
-21.8652176641397 -4.128803068194887 0.05307837066536969
-21.933368040533257 -3.7726179809952836 0.06095780569061793
-21.771921610728878 -5.184452710057829 0.05007230356393633
-21.807235608939497 -4.833662075040703 0.05073088549015914
-21.736268191592526 -5.892047696347216 0.05670274580114043
-21.767151276629694 -5.524221310402213 0.054501746147370245
-21.669795963620473 -6.598089873011162 0.0630694882552465
-21.70253681388761 -6.254280969234655 0.05958170918117256
-21.62043070095734 -7.281515101228301 0.07485061586685715
-21.659367818260662 -6.959776990190651 0.07096092144790234
-21.554150091158842 -8.050154308034216 0.09087105928904649
-21.590612865449387 -7.655856618946377 0.08241879744226877
-21.506360273817265 -8.715001612408688 0.10946581854794069
-21.53118797361779 -8.361704981872478 0.09908816689187727
-21.4647990135619 -9.455474967388314 0.135325010873518
-21.496252820433856 -9.068976235138638 0.12257388144492509
-21.395745912462914 -10.126708956415055 0.1581220970478805
-21.438813216460996 -9.771755955161135 0.14644542229266833
-21.35545506314587 -10.833266396370716 0.18937980899783513
-21.39202631419329 -10.480315478353145 0.17531031677424735
-21.235193725932774 -11.889512271779303 0.2347196350348213
-21.2816181574089 -11.515643012793342 0.2183686102102227
-21.35205781684228 -11.207101458110056 0.20929800218361105
-21.198905533106064 -12.599382552347167 0.2744650813808631
-21.234219765108815 -12.24507201183491 0.2563820291523302
-21.27121179669877 -11.89029221882533 0.23905817850370337
-21.193361750622632 -12.793638552443108 0.2863872096372555
-21.232086376021353 -12.60110547390024 0.2784583859726415
-23.140139845135707 12.429473732674463 1.1277797726637329
-23.08761354826988 11.697947019882246 1.04743139063135
-23.12716701267619 12.12094433752095 1.0946727562860246
-23.03493102153709 11.02782961130691 0.975264596609049
-23.070575311259613 11.401952550757828 1.0160267851393652
-22.99128378267198 10.33667700427375 0.9041154318355549
-23.019055245666053 10.675204420025276 0.9394243916782039
-22.93844790620786 9.618475178411346 0.8316534135203666
-22.961660653717406 9.969564862960151 0.8664313533575667
-22.878554965208966 8.888104387452396 0.759758962470797
-22.917493779030178 9.253108699739109 0.7963953021268346
-22.83133201380752 8.182260528560338 0.6941407460939115
-22.864967773668674 8.562063110574384 0.7300780205285058
-22.72123017391516 7.151034350143748 0.5978065497977312
-22.77560201208329 7.504599654657174 0.6323418557938831
-22.817533182862466 7.8933856671037965 0.6686553291307904
-22.720761394921844 6.873451844330829 0.5766233467892956
-22.747798513698918 7.154228450430887 0.6013970302364067
-22.355086574387354 2.1844139713161357 0.9812545037168778
-22.38738548153247 2.4086090224839802 0.9983621542008061
-22.30990127925008 1.4743417626602855 0.9397240543986904
-22.36411761407785 1.8824814051650556 0.9678935433838269
-22.263896101017476 0.796950378561823 0.9039001428898334
-22.320824632219914 1.1563698392272959 0.9279960765750772
-22.206521725250113 0.11457917368356751 0.8702046476153424
-22.27794662585397 0.4122419062197058 0.8923569434904635
-22.167113505969212 -0.6176262257358652 0.8428225885229925
-22.221374189845076 -0.25579637085203455 0.8617004643852337
-22.012852451679993 -1.6701646057362527 0.7953872909721227
-22.11049733823757 -1.3351621508324443 0.8178720559917991
-22.182284317529327 -0.9954351739416909 0.8367976042553114
-22.057131905229777 -2.003646222650477 0.7990183512534332
-22.16047945331597 -1.6719343517228076 0.8211158515755672
-21.95409102011677 -3.0809625178430555 0.7747015583351837
-22.011309839269572 -2.738599307989469 0.7855480145153377
-22.088467308024303 -2.378038151663666 0.80088732854832
-21.87341383098572 -3.823595672680334 0.7630477642600901
-21.95574293058555 -3.4262096764564527 0.7755299587080522
-21.99009752105516 -3.083354888704897 0.7809590528084622
-21.829710345862875 -4.492076903768846 0.7622166635965741
-21.866121383983682 -4.138893756079222 0.7645413715406542
-21.940544320554267 -3.789708142610385 0.7744260396590752
-21.77164783300694 -5.191516483151681 0.7638558349439535
-21.821562623862715 -4.844663797658306 0.7661945765922269
-21.754992838598962 -5.910223661468496 0.7777893495398271
-21.811355318780702 -5.591132028445218 0.7794576944410867
-21.66618700300283 -6.571618459570278 0.7825256054805796
-21.744020092811436 -6.241506045675399 0.7853739218521776
-21.630920313968904 -7.32077211584695 0.8038420848468371
-21.701494819650172 -6.971376686041941 0.8023157358499793
-21.545202975349422 -8.093994113825667 0.823113757718946
-21.657237404306574 -7.640743990703399 0.8213476558805528
-21.482137768607863 -8.48400851012974 0.8315862259375031
-21.551106164026503 -8.339174419224422 0.8356934482662739
-21.124207573992692 -13.30360436752613 0.3123059275156894
-21.180691194730077 -13.034380318439243 0.30076365570868857
-21.077879118041036 -14.01034855034785 0.3563853904645402
-21.12072955870233 -13.657872752773317 0.336369854782681
-21.01513131901525 -14.707716236559637 0.4005922307583667
-21.052533803302243 -14.320616752771372 0.37606321531399445
-20.96647564017021 -15.446301031822879 0.45210787688161647
-21.012958847168143 -15.07878886240588 0.42859015847488413
-20.9586390283563 -15.753384904415109 0.47563471615867137
-23.467870294882424 16.66421514879225 1.6335788478979163
-23.497704183343508 17.009743653372205 1.6776987737120708
-23.41854082854007 15.959220797325703 1.5458661475175468
-23.449963018846763 16.33756215925043 1.5932950365005043
-23.491077091866487 16.66164968885383 1.635608483140376
-23.351826857892217 15.21664289505792 1.4535876400151535
-23.387764026158738 15.576138428225867 1.4984831376303722
-23.29949421398967 14.539008113581566 1.371794433832438
-23.335947888393974 14.929162530947522 1.4194046383642513
-23.244199229920536 13.844683301746196 1.2894011604515478
-23.27310896057357 14.198550915308816 1.331286996359105
-23.191247577994826 13.14141047216677 1.208009695219817
-23.220061524241633 13.489927413058878 1.248416935218906
-23.155055130983854 12.565040573795336 1.143466037136076
-23.17599545905433 12.78908415331789 1.1691940453269671
-22.800346353814568 8.551207234160909 1.54577236119514
-22.876244960022618 8.745544702217494 1.5772723385634055
-22.720256738066173 7.8031548578215535 1.4595911536463353
-22.85391539208759 8.177310225139909 1.5169571681368819
-22.94317855280171 8.591133797916658 1.571906436930762
-22.72731228321139 7.138552954056381 1.3984828405318073
-22.799161870536626 7.516352140851989 1.444891102665948
-22.864887139250094 7.837134113530947 1.485563244378782
-22.686524819605882 6.439403703890166 1.3300024990115737
-22.7304654450857 6.76819460550764 1.3658277824223362
-22.771988042916114 7.137915424073194 1.4055312350132665
-22.61950539507178 5.697404701874955 1.2573590053574306
-22.687453679960026 6.0820769223401765 1.3000044400278838
-22.7224965025886 6.434958914882383 1.3354067448023565
-22.57636121780877 5.024313818664112 1.1979461711156985
-22.62856318736775 5.402925617289489 1.235619298671307
-22.694634435826522 5.73151837273849 1.2723579647778855
-22.52359815926463 4.290836716032587 1.1363000427203094
-22.569740829496844 4.674093022874429 1.1711502434710122
-22.462164168430153 3.615612163638223 1.0812692876011072
-22.502589193998197 4.029151833573497 1.1150586158733207
-22.434688404157075 2.9103179420198546 1.0340634837037062
-22.48326886063851 3.308503069824258 1.0658234367473751
-22.437053746802633 2.2551154154632465 0.9988484461166842
-22.438794612767634 2.5983801825365904 1.0173895042249472
-21.56812426437861 -8.658806622564567 0.8544184481004558
-21.627919386673295 -8.417085517753529 0.8520395036146517
-21.481725159123094 -9.36167913819466 0.8786612881337406
-21.56229873336984 -9.159294060166179 0.8801707216398591
-23.520555423373125 17.266592645986062 1.7107177509042755
-23.201476788686243 13.127156956740228 2.1290747176369953
-23.218219447758607 13.27901214922694 2.1506981427558385
-23.155145746234954 12.432584329451615 2.03567215588387
-23.205937621096822 12.76609149140255 2.0842562473264135
-23.10017884566081 11.695449819889273 1.9383050029627293
-23.151536857449702 12.045556154606201 1.9878334991885422
-23.036799914607 10.982798994485993 1.8452901271948248
-23.12559770863503 11.372754775806747 1.9037226495411597
-22.99456635343086 10.321577160121931 1.7638415538954835
-23.06573631405898 10.687911841860034 1.8156786075783033
-22.94074250119474 9.642805203494584 1.681283123443781
-23.015296766971723 9.925342333938817 1.7231364991314546
-22.926700668984697 8.986950481299369 1.609798974125745
-22.96539212428493 9.275053285189374 1.6457865110589518
-22.58572200050236 5.638696963123767 2.033445900959366
-22.532319395273596 5.046206096022939 1.9697970717947317
-22.627556444640916 5.353538972759356 2.015938916507471
-22.49923842918092 4.3056078633478005 1.9015475908164348
-22.572157099467237 4.6081265043971325 1.9407849223264968
-22.47294534904553 3.604712346941841 1.8429614979251285
-22.479660087056565 3.959581810082246 1.8707097934644015
-22.39917710681773 2.8365134132096403 1.7752101253715127
-22.47898404355778 3.2883844815220082 1.821832314870159
-22.345028230834966 2.143428347902644 1.7218655628139912
-22.418127526898672 2.576554735543423 1.7627175712680678
-22.293916615171558 1.473260824313059 1.6753893991698545
-22.35065563635654 1.86183299816854 1.7073456676841277
-22.242247722087786 0.7945396988088183 1.63333607329941
-22.331001401871863 1.1876699248982807 1.6692622095326008
-22.182707287567833 0.10135475216723044 1.594127266116792
-22.274718722558355 0.43274212095469 1.6253837145446273
-21.99518812062817 -1.0149329907937115 1.522995405007812
-22.151607474065873 -0.6587759543020909 1.5646035024528553
-22.235412660648674 -0.269571934537687 1.5930168014929436
-22.00329380002102 -1.6846594937599193 1.512651187287477
-22.101755483035983 -1.3242575230368772 1.5393503300910858
-22.166044049964896 -0.9777464452800856 1.5597586850601717
-21.986958555235415 -2.3952188329769117 1.5021221722187308
-22.015851286278462 -2.0060394002303297 1.5115516267503164
-22.1413232876722 -1.610786709360066 1.542779667520053
-21.946258729449372 -3.0947631807961753 1.4923408169264327
-21.97947666317191 -2.733762042112316 1.4994136690506847
-21.87107278534401 -3.7962990480213517 1.4811195560362123
-21.916233303425095 -3.445286041761692 1.4877662863875267
-21.79863926977776 -4.53630651010941 1.4769095857435337
-21.8593915004612 -4.147890384827 1.483181484792035
-21.756345440139988 -5.141227131644647 1.4817025679554217
-21.830490313716503 -4.8844109316248705 1.4909039808232816
-21.71473973811227 -5.940709783902509 1.4974913754428796
-21.802703706141084 -5.5257694754321065 1.502179912578666
-21.744042490531506 -6.655227204797853 1.5310775464954594
-21.78436545054056 -6.289058632019078 1.524712880871535
-21.692761412167265 -6.84874269519476 1.5291499012855834
-21.50929968014445 -8.130502135048376 1.55861971079596
-21.55691009454671 -8.58422479527085 1.5955856427374835
-21.60373533346724 -8.450123116874328 1.5964761014284825
-23.500505834586 16.850635788074346 2.6718159893427176
-23.39196400717736 15.962399632575465 2.5326084992734597
-23.46988662661733 16.26863265295318 2.58559037027863
-23.526788885478965 16.65094029543437 2.6467552796235108
-23.33499489762016 15.247119185493592 2.4265298208425046
-23.410808674249942 15.634147650003179 2.4896121513933798
-23.282336910090184 14.508267581608536 2.319828733666113
-23.33797670432551 14.890390878850958 2.3785575524173854
-23.236190891864663 13.832521701973956 2.2245277855542467
-23.274396528765703 14.16206075468118 2.2729257734949933
-23.243594736375613 13.494515585560388 2.181837160767481
-22.913561008695304 10.064806184104572 2.5879054352884294
-22.914484776108083 8.999149455338701 2.455553887272134
-22.851458767079958 8.057033377763824 2.3338186709322475
-22.684453763213398 7.097732074240911 2.197052936149075
-22.7900003639937 7.3824394311400106 2.2476859529197784
-22.85605716107354 7.892578966564866 2.3160718433843916
-22.630747043165396 6.438935893825041 2.119129555785512
-22.72692816844941 6.777326320193691 2.1721020904864465
-22.769582554179557 7.123090114462995 2.2160965806289425
-22.65108706783296 5.763954176617373 2.0579812550577516
-22.664889397461963 6.093516217216189 2.092059979780613
-22.779307689819653 6.452341373713715 2.149385748055238
-22.719913896064494 5.630007859150412 2.059178241138638
-22.28784534345636 2.7456163336419173 2.5045230918787578
-22.265427939972177 2.204058573070405 2.462151945026144
-22.30371451336185 2.543275558732725 2.4940625268988805
-22.15878531770081 1.1355681962946056 2.373629469834576
-22.191374878372212 1.4312162234030694 2.397564569403402
-22.258021069077813 1.8715458741155548 2.439269754138783
-22.11697760172999 0.4290426058143042 2.3302036790349563
-22.155412627052094 0.7808857371921705 2.3555438935485915
-22.197481101096006 1.1415674795859965 2.383410044115359
-22.076803304923835 -0.27712974461789663 2.2937205875454696
-22.11119706355222 0.07570731369020556 2.3148554095676044
-22.149578889893007 0.42646025550883526 2.3381081144924405
-22.00591149542157 -0.9688154036681307 2.256618145938738
-22.039094991399534 -0.6554332848540232 2.27307661199793
-22.116092539148912 -0.2760724111664621 2.3034381610177617
-21.96181748272479 -1.6865573511242555 2.2321549716640545
-22.00427339989396 -1.3069102747314734 2.24912252976699
-21.906281947059217 -2.3909784637275253 2.2119185674301356
-21.956093083492775 -2.0397480105791868 2.226820282384117
-21.84984287412917 -3.0982124606418804 2.1982403769945122
-21.8815188693726 -2.7452073068894842 2.2051461908222922
-21.784952449269927 -3.8382104609107612 2.189791075775866
-21.837052413075938 -3.4506192820502157 2.1977782783464157
-21.730861752324454 -4.534724754381734 2.1903675857485636
-21.76223394618672 -4.155793644733086 2.189688269236224
-21.68149760422944 -5.2358442111605985 2.198788201885246
-21.715856142424716 -4.879951570321654 2.195909790732145
-21.6421033631625 -5.950201716189406 2.216792099955776
-21.664846377482807 -5.552364581974301 2.206047806405463
-21.576937853377267 -6.62531522874268 2.233242882374065
-21.629953592965748 -6.3030314378237655 2.229749560279018
-21.44319349417503 -7.694613404496826 2.264121053285524
-21.53399387873088 -7.360136980045834 2.2645053460362403
-21.56909277799229 -6.9790429055940475 2.2503262260894683
-21.415532986346307 -8.388824896057226 2.3059536259059525
-21.46890780414295 -8.01940117288079 2.292178173462732
-21.528923377981172 -7.685459113068875 2.283652051583802
-21.33768548154203 -9.044055597068109 2.3388870428562845
-21.416177162036337 -8.72284937135892 2.3315247787997295
-21.45580143790752 -8.391096345761056 2.3154529893559372
-23.540501168059752 17.078941606919585 2.7095054121489346
-22.980122441239207 10.360539856751732 2.638253418422855
-22.99128526198008 10.576031850054479 2.6684818599922897
-22.631654891623906 7.121146432663515 3.0095001771466094
-22.663889719401602 7.42648787637102 3.0540139957927117
-22.58820799612172 6.416601228892278 2.9172596981419368
-22.61953230481775 6.763608267269127 2.9643574431128457
-22.53733284796544 5.739445370455142 2.8312249100936757
-22.562373082976617 6.0672227579396925 2.8724038647714716
-22.473962959069258 5.000268537598407 2.7409428928290236
-22.505248335404307 5.360441552057901 2.7842940221280967
-22.423025636811104 4.313874753010246 2.6642414515314883
-22.45678754934719 4.656178000065365 2.7037788922776578
-22.366521284878953 3.5647214933518723 2.5863809276310414
-22.393454790038035 3.9570787353377868 2.6256417288790255
-22.31985074800725 2.941131412647645 2.526583579252539
-22.353537772803918 3.2459242671484474 2.557745169699933
-22.33255732609826 2.621728715570035 2.5064734918880607
-21.380951759642485 -9.09575740151304 2.353003018954042
-21.449463742123744 -8.92458437603117 2.354888330246668
-21.34165021831379 -9.80093075018923 2.4046594491179993
-21.386322691715566 -9.468999446724792 2.3857276681192383
-21.460419156561308 -9.064933412024804 2.3686742078759018
-21.26724402814491 -10.508509379443698 2.4544148133897696
-21.33786856992143 -10.138356773470644 2.4348594727567203
-21.38401393492659 -9.802373607969157 2.4143437558762377
-21.18937152508278 -11.257938117067544 2.513547724699909
-21.291211292697085 -10.882111604003192 2.497069996106311
-21.370893662111186 -10.515615460561719 2.478078056833783
-21.16195338696404 -11.922284400431085 2.580063812406565
-21.222170646948953 -11.574600680882149 2.55471773103244
-21.35739922714583 -11.240571183001178 2.548329016331988
-21.107578126114888 -12.63950481401692 2.651583615806997
-21.146796287546845 -12.245267513797714 2.6136449495933674
-21.14159072520922 -12.803915430918035 2.678404252574274
-23.224236008688194 14.520452987102821 3.278123966535084
-23.292270622965 14.797411574214134 3.3325223862772404
-23.214734545282415 13.782509690825382 3.1630331670312293
-23.218797408364498 14.184149266705827 3.2251117187072555
-22.81919626947424 9.94084882888247 3.4277819958611673
-22.844961057476226 10.296547330892468 3.4858930488540176
-22.782527434753153 9.234354049495428 3.3187039213186535
-22.824436454978663 9.609336269646723 3.3809989120273443
-22.74161319125587 8.53053999172764 3.213332768432047
-22.782036287361844 8.905237192075314 3.273068662950175
-22.680763746875026 7.79774812903732 3.104254108377015
-22.738972634342257 8.207367683478783 3.170099202253656
-22.689310106629236 7.623406810173915 3.0841716105960755
