# .PCD v0.7 - Point Cloud Data file format
VERSION 0.7
FIELDS x y z
SIZE 4 4 4
TYPE F F F
COUNT 1 1 1
WIDTH 632
HEIGHT 1
VIEWPOINT 0 0 0 2.98023e-07 1 0 -0
POINTS 632
DATA ascii
-7.912386690108963 8.049568825694585 -0.25774530161959897
-7.855105784478552 8.348688643142262 -0.25524560534910024
-8.109096821006947 7.370213437851373 -0.26912077353555786
-8.013300038630668 7.6827066749535655 -0.263293521307708
-8.289081809020601 6.690306763712959 -0.28100979128297965
-8.233916103208298 6.990140680364669 -0.27735278132588503
-8.410851907053015 6.336860847111244 -0.28998902131453785
-8.603413996473062 5.6475058680888734 -0.3054923965005645
-8.526613924598568 5.9686862058568195 -0.29894968805689126
-8.802059191515312 4.937957014317868 -0.32339066064740085
-8.703002040028519 5.282532527756257 -0.31424429648633834
-9.01293313590417 4.260078097088659 -0.3439669974209747
-8.921601542527537 4.549778807556371 -0.33489447151844787
-9.138734401553219 3.9648592082248313 -0.3561604510120797
-9.338085383401516 3.251027909412628 -0.3789488284504081
-9.281306909237959 3.547312944685291 -0.37121827487199743
-7.794864539218756 8.723819532423693 0.27479169250281676
-7.983107505421542 8.058842530736175 0.2582416959785242
-7.901466124656117 8.328805548321231 0.26523810650370994
-8.186244510669908 7.336905414024572 0.23974524761822147
-8.099966427415335 7.652460243001693 0.24779596411422605
-8.359270914285325 6.646077564218757 0.22233464919192447
-8.305781205396475 6.970352866676128 0.2294169641211789
-8.480074856631195 6.350367174141798 0.21274508065686487
-8.398287611689511 6.649129953698991 0.2207634414936417
-8.654701637031675 5.616491095266967 0.19371132739275898
-8.611622722603261 5.939160246898146 0.20076029997354483
-8.786201464294322 4.922971633575077 0.17652060572974126
-8.71220827096656 5.269806724635098 0.18554157002268823
-8.963320325294976 4.233657070532361 0.15687004932430915
-8.876388480007012 4.5508889530933425 0.1662172197157803
-9.149596488758725 3.5479258582016824 0.13626889235606954
-9.069648004317518 3.885219262268712 0.1459615534755878
-9.264282950825486 3.2374560388359974 0.12541964984003262
-9.173179150962927 3.5469370383945114 0.13524125175667556
-9.491416867469766 2.5230167126449983 0.10158281639467637
-9.406590303118481 2.838300577254626 0.11153054875211754
-9.677357381504759 1.8747152674821108 0.08024017835596498
-9.604434294027723 2.1460717891704166 0.08901678989563155
-9.794578945359465 1.4692372853878286 0.06655677142733107
-9.979085137940906 0.8548643476583742 0.04516359772445533
-9.912540338820161 1.1174089821967907 0.053846386986829975
-10.179724438136457 0.15260175162683354 0.02059053885270279
-10.09362236060728 0.46618862358839164 0.031490303637017214
-10.369412245908755 -0.5255804028762987 -0.003515866395068734
-10.29173632546728 -0.24325794767473896 0.006517710489657325
-10.48351943973034 -0.912957397874192 -0.01778662931421615
-10.673130302872394 -1.5445711959253012 -0.04153266087148211
-10.609833378204176 -1.285711487759416 -0.03235833154716117
-10.933075462056806 -2.2691047400647375 -0.07110674585216359
-10.83788015177273 -1.9678674797595836 -0.059302850191480294
-11.03221588722461 -2.6105882065032504 -0.08423264420037646
-7.764664640374725 8.707823168443529 0.8018493883411323
-7.782468552421542 8.980965995739593 0.8106444683688283
-7.958840659043571 8.025411324422246 0.777428986842207
-7.8655763642293595 8.348603503383597 0.7889319566759557
-8.152032361459128 7.357484301677824 0.7540280244343927
-8.070993279375447 7.6270646904812605 0.7634444138025318
-8.366402913159558 6.636761710005388 0.7293318459452072
-8.270281886362877 6.962839911648623 0.7404278548000112
-8.469098233712007 6.298775145184561 0.7179763762256943
-8.384388601762076 6.635355479054188 0.7291052070385857
-8.654293448999919 5.631775481417438 0.6961190949553664
-8.568794540937475 5.949292339797732 0.7064160485415855
-8.854446082384076 4.956314479999185 0.674460851538849
-8.780091237568662 5.22324721400959 0.682905406984261
-9.058679533853915 4.23545294496159 0.6520972597904173
-8.97143113783979 4.562842120627529 0.6621315827179328
-9.164224034890736 3.897112630699285 0.6417717873235983
-9.079362885389656 4.2349493071831015 0.6518953359582593
-9.35265612564475 3.231592246611873 0.6220269983738562
-9.267714192003265 3.548167917661319 0.6312948658634585
-9.536543924122732 2.546296043563833 0.6023973100678371
-9.470192799600355 2.8221688159047926 0.6101625035982644
-9.749507308405235 1.8339007122347946 0.5824496346117773
-9.669882265985805 2.1447062018619842 0.5909727667251116
-9.83556997566707 1.5135283137521784 0.5737929240746314
-9.773634626586816 1.8342019695548664 0.5822529644220098
-10.04497008321033 0.8506793301034395 0.5559775301608001
-9.977515728325681 1.1107214831084586 0.5627693204777872
-10.235573635889708 0.15344598952738292 0.5380684026418684
-10.163015604577303 0.4356565199920254 0.5452100663446026
-10.432988308352428 -0.5722241282465496 0.5200444021870312
-10.348783264569526 -0.2246026227933446 0.5285318080791517
-10.532722986893614 -1.2659361310116912 0.5041198013178898
-10.46475950437316 -0.9222609053113372 0.5121160074277105
-10.461651019819815 -0.5659712444564743 0.5199422606117262
-10.616417826890284 -1.5894976939922199 0.4965761567761424
-10.713634080220078 -1.3299889516197707 0.5012284969682038
-10.81252367060591 -2.277662044574999 0.48070473780219586
-10.729181537525307 -1.9580276702748014 0.4879395835024054
-11.0073595395749 -2.9507269755932604 0.46560467179803366
-10.932767875717843 -2.6774645240884016 0.471644191173137
-11.236601027773194 -3.670320894644503 0.44975034592232366
-11.142529003215849 -3.3589256632116995 0.4565181459155223
-11.331863887261711 -3.9772134315588397 0.4431598093648971
-11.255767080237536 -3.6690288036990846 0.44960506197880185
-11.435381288124137 -4.3202358228593 0.4358912645653052
-7.7561636883744045 8.692155523919045 1.327268831853091
-7.752882712442253 8.997549735459726 1.3433887647351672
-7.935963266572782 8.035526553589694 1.2964774041295097
-7.869651252442332 8.295901267167942 1.3085616627244683
-8.14754466026811 7.332710925282555 1.2655339974049444
-8.05335968058273 7.647381544860269 1.2791691406507648
-8.35903148072817 6.625910095954231 1.2362728361670827
-8.273087844283257 6.921605610406464 1.248371199950511
-8.456658122813575 6.30267745097642 1.2235992360934127
-8.647470331016567 5.6139747037597845 1.1974425490150264
-8.56765863721591 5.93444315027345 1.2095414007394232
-8.84769985546463 4.93428984440792 1.173684130375567
-8.771473694412805 5.21441650914949 1.183405927998736
-9.05415325620083 4.224988544957994 1.1508142517677054
-8.970929555129882 4.521379019493964 1.1602372587004721
-9.150933641137591 3.901130894686772 1.141164297765582
-9.343841833585877 3.2137611613959876 1.1216197002805521
-9.2633292254264 3.5352772992015646 1.1307280995284748
-9.538134047816929 2.504210198491996 1.10324850397273
-9.468048959008868 2.8101935640170352 1.111278274138519
-9.748576778579444 1.822326755741409 1.0880762161742765
-9.66188431591177 2.136908203349311 1.0951569206911507
-9.835494055792566 1.5002533746312925 1.081260804274425
-9.781747804034804 1.8224087836420026 1.088946281143892
-10.034950160476463 0.8115883340986058 1.068227326671371
-9.951308834107657 1.13086086156151 1.0742416213070873
-10.228050308540645 0.13117571747398798 1.0569262592245747
-10.144761123584736 0.4159605309113555 1.061388091356347
-10.434051644421263 -0.5800152944258462 1.0469836912607495
-10.346364679045159 -0.2831924284773708 1.0509099315263162
-10.541632436248264 -0.9539442786186086 1.0424850699226562
-10.705930102851074 -1.5696953866150887 1.0356350149614517
-10.640786457401965 -1.3070501748063599 1.0384994443214444
-10.919916533241864 -2.2719440362994066 1.0299499079562489
-10.847324167642512 -1.9901884820532016 1.0323983218686676
-11.1265431368912 -2.984211708431971 1.0254297705735427
-11.046625963557506 -2.683661634300312 1.0273723163566275
-11.219780248416875 -3.3051297776418833 1.0239005425226624
-11.411432517993084 -3.9822203983114277 1.0213625510003648
-11.340443287409244 -3.67376476234275 1.022749057652359
-11.528797587269029 -4.342606678432301 1.0208546299636798
-7.518530459514969 9.589328947255543 1.911133818378326
-7.641553754243678 9.003823124082631 1.8723527487210228
-7.570983144870762 9.344573810027148 1.8948325859992554
-7.755354382307686 8.64381534303398 1.8511891288748243
-7.924967588830847 8.05956317302779 1.8176292722492509
-7.845054606221546 8.310369539033754 1.8313876577020696
-8.14223724507551 7.321567278088911 1.7782725876390386
-8.0545441745653 7.6043768095565065 1.7927104995369025
-8.33133773409373 6.642176027283237 1.7444344180110383
-8.270248193624791 6.917869227628677 1.758675951720347
-8.457562020153532 6.263721588529984 1.7280520682924059
-8.639575059478933 5.608198801379266 1.6997594065098562
-8.576091515767018 5.920347370380295 1.7140816358054956
-8.831337421810119 4.919425225994727 1.6730549813497044
-8.748868474331076 5.233144200077002 1.685079437599533
-9.026903075150518 4.204374498720365 1.6484238370239457
-8.958124090209445 4.516854784639906 1.6597752320992865
-9.14554703198814 3.8622228569624584 1.639393215347626
-9.332083743657563 3.2077998595249513 1.6217689132872009
-9.269849798679303 3.5174476474090475 1.6312262941771816
-9.548067317090585 2.4925322246794224 1.6064462969963678
-9.475671499804303 2.799633005725796 1.6138264264489834
-9.723729513515114 1.8036879953134544 1.5928985605132
-9.671699389591886 2.1237768724636856 1.6006667842572841
-9.851394091932324 1.463010108618302 1.5898891089717315
-9.806198342355007 1.8121447152131034 1.5981974439847364
-10.032914711895454 0.8097923188255972 1.5821314200250836
-9.962061563498256 1.117629613840922 1.5862945659150758
-10.237538539032187 0.07126606315387633 1.5764215771450578
-10.158622114558433 0.40249873075650267 1.5793666866379827
-10.414769738069857 -0.5971647903682806 1.5735542460235474
-10.340498275051441 -0.2698052479821447 1.5754551383571678
-10.538444799176574 -0.9409421747460763 1.5751403891796705
-10.49750624236033 -0.5801812601907765 1.5789461524417026
-10.710110129093376 -1.5878986954108893 1.5759549460129152
-10.657067703326543 -1.2812040766265933 1.5769649491047861
-10.921117468700505 -2.2783563840200665 1.5809347361604682
-10.885635499850402 -2.0164729358708895 1.5814536915601414
-11.09784696701017 -2.980445303598106 1.5861383060777143
-11.091798659419805 -2.6783689067136938 1.5878674821945027
-11.261831786473966 -3.3363782171899867 1.5941617625662505
-11.225920619056168 -3.002814558828598 1.5936659616094146
-11.431350751833058 -4.003611362061412 1.6023863595059487
-11.395423102965115 -3.725040681372761 1.600727732660272
-11.56777300315208 -4.263884932977992 1.6102070323785729
-6.9204450786538265 11.418113637900253 2.603986846295443
-6.8573956532999985 11.648184764677747 2.6253227053291743
-7.121905339508273 10.698740526567155 2.539680039785366
-7.040491756630195 11.036020052636815 2.5703206615068708
-7.2272048999460035 10.387858741321315 2.5142869513146664
-7.149585771739356 10.699133889980898 2.5415316873342144
-7.41888727597902 9.698182793205708 2.4573879034732102
-7.370585442898231 9.970798611939015 2.48131285826282
-7.60691368125723 9.019269881304727 2.4047383058765064
-7.53837298505803 9.302714377993706 2.4270199082551747
-7.809988752619783 8.301917342453873 2.353327506260306
-7.716520572870894 8.654342313792572 2.378654908052739
-7.913196714009467 7.963677328603802 2.3312522600569308
-7.830529816390199 8.30014629339322 2.3547465074599088
-8.113012136359178 7.312672325241957 2.2912725345870077
-8.023642518447883 7.599989762220046 2.3083006041963587
-8.30280540584543 6.621814068520055 2.251142451807965
-8.233618208364632 6.904597593363348 2.2677621517190776
-8.503930639498464 5.900306859560766 2.2139265973870312
-8.434591857180418 6.234618032115389 2.232748495017285
-8.623983133690647 5.560307838698141 2.2003818408598237
-8.535354153422297 5.901249624401575 2.2166985635183885
-8.805398743125306 4.913769979892894 2.1731812512691957
-8.741822569388166 5.192148837348436 2.1856481317908587
-8.995821326902163 4.220374020349728 2.147976494580882
-8.923501595029485 4.530512515754007 2.159902928680088
-9.199675371072939 3.500561039227843 2.127123874753487
-9.129482569592913 3.8346054635500018 2.138585574166883
-9.317403169613904 3.1857747523091415 2.122313572030735
-9.230967748495758 3.5005063235701335 2.13002116188537
-9.524200638858247 2.510665649689807 2.110596934479796
-9.452989535075133 2.8185953617137947 2.117569017942644
-9.712680609906457 1.7875478425634115 2.0995403947083164
-9.641431311187947 2.1045833981785043 2.10496582737306
-9.890989502991136 1.1002618687839694 2.0932679560181056
-9.823500193110455 1.4401559427904496 2.0979376652281077
-10.02453545460737 0.7548260055796198 2.096009502147629
-9.959279717100344 1.066240768610713 2.0988144973638088
-10.195113640022225 0.09645214888899847 2.095750723974617
-10.136595156489207 0.41655406776984605 2.097754992263696
-10.380754727662136 -0.5793778590548803 2.1002568951404426
-10.32635633995439 -0.2989983277097942 2.100168711485189
-10.577312435865323 -1.3041726983728634 2.1088134171050488
-10.515521561060751 -0.9704178113888055 2.1072160038759193
-10.704512149727492 -1.6497056670563786 2.117627578848517
-10.615978177668751 -1.2965279338699753 2.112628081644167
-10.895055155496042 -2.280059033826587 2.131725948892143
-10.864405093025812 -2.024012233461013 2.130114564573299
-11.082696499349165 -3.021828745314249 2.1484177209659974
-11.05916030175247 -2.676465171808808 2.146278924850902
-11.213651878064212 -3.3098430536544945 2.1613910121374205
-11.243369651781489 -3.0369947223696965 2.1635576553381566
-6.293998758675344 13.756801983696246 2.835920080742075
-6.337293638787053 13.848539077583371 2.84904437539512
-6.427783618109971 13.09499484226077 2.7649071904930183
-6.363972468871689 13.400105623724624 2.7973631702612196
-6.385275431085046 13.809188185705299 2.846801125404015
-6.536757671394914 12.759360963180844 2.732015156321967
-6.459688502466633 13.096992834148352 2.766851808768543
-6.727060413697573 12.095491173644081 2.6672899349593355
-6.660809523622892 12.378301837675968 2.695349741193434
-6.8269057445857735 11.80193166653771 2.640419196421835
-7.076301157880459 10.71647564854822 3.09949745722101
-7.072236162917595 10.755030539211608 3.1041224539957364
-7.198786838917321 10.337070393516445 3.062318270053214
-7.384642046626387 9.68705206130075 2.999293314952488
-7.3198436197575445 9.960712974481455 3.026533463369628
-7.590922950008314 8.967101212665652 2.934175375289266
-7.493401715166173 9.302519242775432 2.9636950701460343
-7.771138002902759 8.317713929223311 2.8793435306261426
-7.707639520206835 8.578686508863319 2.901896176288363
-7.888336952396741 7.939338893992695 2.850887531750182
-8.078965784656258 7.271762365532846 2.802481609934287
-8.003850717533396 7.55955718579982 2.8234098456202665
-8.285794861990883 6.569795586408768 2.7576380803438694
-8.19605977270119 6.913930313894691 2.7802262059664065
-8.493172513988036 5.890707674111689 2.7205910522645227
-8.40436366213643 6.181668841959443 2.735912923105928
-8.586178154929105 5.566694133831208 2.7043205102962964
-8.764135681241946 4.900764334200164 2.6728108436894757
-8.70039195694212 5.161558625153603 2.6851108921939044
-8.973060171041737 4.16840678378873 2.6458406007417103
-8.875548539501839 4.512121483711652 2.657711786681339
-9.177782428064248 3.489864084442273 2.6280824359004384
-9.094738607238888 3.7816385703579 2.6357833295140276
-9.277119236788621 3.140132228157745 2.6205191732952304
-9.475758841115617 2.4781968825864995 2.6112498842765017
-9.393971303909264 2.7984714250997045 2.616803240462379
-9.671546258689549 1.767999855853779 2.6047414543566147
-9.585495587949893 2.1127024129214025 2.608306723005126
-9.875812802403605 1.0878286258691099 2.6062294946070206
-9.78670949609576 1.3783687366619528 2.60481258105201
-9.957070134618338 0.7825157988146787 2.607396073496542
-10.155894680528046 0.08551426685668335 2.6152931248737934
-10.0898344480424 0.35780774969748347 2.612972423990703
-10.360641406681513 -0.6369539437410509 2.6286957806384645
-10.269397458377302 -0.2919317200190465 2.6224318055873024
-10.524494922867447 -1.2728142552808515 2.642803564173236
-10.483538667665105 -1.04559322525279 2.6396986234719693
-10.656467811021809 -1.674168906274014 2.657647576251256
-10.842836596702302 -2.3080974324214956 2.6810392743114497
-10.780825540073188 -2.0463526220559536 2.6727705939006032
-10.936660946223494 -2.6495382122849898 2.694221066875941
-11.326974581225574 -3.528471954438929 2.1727816568567713
-11.402343553428562 -4.006671979732429 2.182764391693043
-11.385448823745392 -3.767486425859157 2.1794906300875887
-11.557445471926119 -4.285564746827913 2.1994129909524656
-3.6138417635425304 22.717140432219846 3.9227596041564867
-3.5837451153213253 22.936439239139226 3.952745601515838
-3.6910224424360623 22.54027761906746 3.89948334427526
-5.8505480202796365 15.011918479393167 3.6152584552934077
-5.9919133512205685 14.461189569619245 3.541082042981724
-5.905287370246479 14.781787832220685 3.583706009436025
-6.1821717857247345 13.792153599122335 3.454569554762059
-6.108419829862274 14.071152638145913 3.4906591231989608
-6.3877046063826635 13.074130836630076 3.3650603806598767
-6.315123830265244 13.359497994596452 3.4009616564373046
-6.501974650980107 12.72571377748731 3.324178099304199
-6.687725216164957 12.086244103259176 3.249440812669415
-6.6019398063942925 12.385942503114132 3.284101547576622
-6.900263070223073 11.364326227581374 3.169153862796591
-6.807388657861545 11.679130938130955 3.2035958178275705
-7.013945446209251 10.978566353978879 3.1281347672372726
-7.262816605149383 10.003331153369182 3.5814014950026767
-7.392402186239644 9.684479747001447 3.551098278818951
-7.334758027225177 9.92545798762682 3.5788389254767927
-7.605626043831726 8.954928196689576 3.475667096463474
-7.523950234641723 9.268718946548116 3.508605434234733
-7.776131310340449 8.272528720078611 3.4072350112645715
-7.706606374195249 8.578031077558135 3.4381696916622744
-7.894926074291882 7.908842589552994 3.3771575442622215
-8.090197335681431 7.276871481020994 3.3273787784115014
-8.014748469766023 7.543254186871365 3.348508577056161
-8.298260078467894 6.587280981544608 3.278604565580842
-8.2294875993028 6.867470666399217 3.2999045171766093
-8.479568474426038 5.91016469690241 3.2339295568681194
-8.426792171736384 6.230326458889972 3.2593066249564253
-8.61315894452834 5.535986656472304 3.2173457881736196
-8.553440524761598 5.879184317670284 3.2419800138454633
-8.790344447875334 4.882208502748263 3.184379894018965
-8.720431166866785 5.1879596171392075 3.200891597812786
-8.990283564117835 4.158152590979049 3.155679118468194
-8.908003035235577 4.472094618071928 3.1678676409450417
-9.171755946196637 3.506833211261849 3.136760160676038
-9.116549093280469 3.7908201874664145 3.148228089500879
-9.306678919586926 3.136058392985919 3.1341556227757135
-9.247533365235732 3.4747594320636983 3.1468386314792394
-9.50099180530363 2.4779177562602803 3.126811363804676
-9.461882678230019 2.759473595320836 3.1363042176777878
-9.713442507041453 1.7773413326380472 3.1268067615273414
-9.666841043543513 2.051547965490251 3.1321191125847796
-9.870228015025962 1.1059369846191316 3.1255804964729133
-9.804434327525804 1.4473438264857763 3.1278955411539635
-9.992077560413424 0.7166001177851987 3.1331015451933864
-9.938242176198944 1.0785403380269172 3.1359732827555766
-10.181638535323803 0.07801244433364894 3.1477733455128027
-10.108342429376325 0.38316493728683715 3.1428466488395452
-10.365337544554073 -0.6210326054288343 3.1659318467677124
-10.323424600978111 -0.33778159263937124 3.1632485409946134
-10.54925890720207 -1.3357295340288675 3.1902407726146547
-10.524990167542839 -1.030847783731014 3.1882611954881557
-10.6690538259199 -1.6736880635950615 3.209496274558902
-11.04842833749381 -3.0433886478409136 2.7112711195338615
-10.968762013963559 -2.7351399007622628 2.6988144627426025
-11.235750178521215 -3.6932383621880076 2.7425301242461595
-11.170062621199477 -3.43147588486686 2.730851159913729
-11.347445953527465 -4.071523280298382 2.7627277316904113
-11.474559032887932 -4.3509889960101304 2.7838117656682515
-2.415506828558124 26.77377286360621 4.480651414952514
-2.3688752116091134 27.075602141639223 4.5233584601768335
-2.5344084827871898 26.457709794857987 4.436443836214747
-2.4474873182509276 26.77741419935544 4.481329814878798
-2.716145371359218 25.79075663611479 4.343207265560084
-2.6569819090554683 26.049138346537084 4.379341711878555
-2.935321581617348 25.10146363296374 4.247726687521965
-2.870359359291223 25.371004817785558 4.285167622194449
-3.0427002901167146 24.75996233744598 4.200745874111012
-3.2474420884941724 24.08219053106709 4.107923293297537
-3.1955714595906493 24.36207250664587 4.146510959267303
-3.448184496725383 23.356357889587894 4.00915708626013
-3.3733280619621384 23.702429798668877 4.056407346916972
-3.520438558980751 23.192135548331258 3.987340661997518
-4.3092009477657855 20.25116273121782 4.383470181879066
-4.4883732301024795 19.559398346895108 4.274545071076263
-4.404166650888283 19.92605044738216 4.33256582056118
-4.590007637857416 19.27175961464701 4.23090660922364
-4.5073014172236165 19.569075562124425 4.276938314823279
-4.783726244820271 18.618996604044703 4.131359463572791
-4.720183957321914 18.849478163965223 4.166510927906023
-5.002666926164637 17.90906923842348 4.025424032193734
-4.927234056201956 18.151610045457428 4.06137623066288
-5.876061177689965 14.7667126715859 4.228257151081616
-5.998423300355118 14.451123051777502 4.182071904244721
-5.951544191738365 14.717018329808887 4.225833266340527
-6.175556744437169 13.815165995440108 4.085042379678772
-6.1235984399372105 14.05541220005126 4.1226662123048445
-6.393928548858423 13.067202046706534 3.97599772066435
-6.323575810247024 13.363376815329055 4.020245122241873
-6.51595287653834 12.726579760054523 3.9303964141471326
-6.705093889225254 12.07558545709751 3.8414844859120363
-6.64252805793205 12.383095865476747 3.885717452678406
-6.900993332326785 11.38152208087871 3.7505674371465254
-6.833975291963093 11.664530706762115 3.7884785710631963
-7.0856455723993 10.702898756980955 3.6655277981674304
-7.0223485765239415 10.996782240416612 3.703775903275761
-7.232722287709106 10.332360627505537 3.6268931369137856
-7.4083922090136225 9.53443136715094 3.8997789008940176
-7.3449040735203495 9.98563451077552 3.5889474659016023
-7.585918063448061 8.973417465038738 4.023987013576093
-7.506074510967907 9.24169884171175 4.054374776765128
-7.7754707262549685 8.252573596319259 3.9433986556430534
-7.684601422694713 8.568017822671134 3.976463965852858
-7.952472678213096 7.566985929222707 3.873462357454202
-7.875404826409514 7.926428073856896 3.9120929666282134
-8.076101129376653 7.2516713262952885 3.8513094209510115
-7.981878367194416 7.56496688535065 3.878244674164381
-8.281964620050886 6.571578906637086 3.798241587158479
-8.199713172905795 6.884621091594021 3.823844280347784
-8.492622011416717 5.862133615914144 3.750507400060829
-8.42359519202304 6.132749969400243 3.7698826259315035
-8.606887296579135 5.550059808100714 3.736557037218644
-8.78653825671509 4.860879139843718 3.6976294014136313
-8.722029704814435 5.171805922909117 3.7171332743742203
-8.967554634295187 4.176723152301001 3.6675875900527974
-8.893048864675261 4.486786971143427 3.681586540677566
-9.177045758790417 3.457036249175104 3.6485700392961986
-9.116350361187703 3.771381658508631 3.661920675288413
-9.323979347519693 3.1008755517596014 3.6513602220657293
-9.25989433717114 3.463224053550305 3.6653864322958034
-9.518128885086178 2.4600856750424853 3.647687748958322
-9.479739800748998 2.7556875731726045 3.658588055111998
-9.69961625872197 1.7439337501053451 3.6448046670813485
-9.608596544069886 2.107072848928809 3.645346167575464
-9.839713984511267 1.0881990932857577 3.6443945259162622
-9.792736380765987 1.397067747073916 3.6477164404789395
-10.023431909859653 0.3662208526463085 3.658038496703769
-9.980234451422213 0.7065966237058513 3.6596003413079328
-10.17416736196073 0.06090637956231404 3.6813635670277005
-10.134693995745852 0.34964345503629607 3.6803039458701647
-10.371839227859422 -0.6317810905155071 3.709830543801662
-10.327679106956015 -0.33868476531387004 3.7049130681948856
-10.527491454105537 -1.3395638667259373 3.736847268473292
-10.497318425577372 -0.9599814731857165 3.732359844770778
-10.771192883615452 -1.8556922930819302 3.2264387325109216
-10.877694565762859 -2.3100288132841227 3.246164959491894
-10.85773584935188 -2.0496342618884733 3.241351021251269
-11.07185981225506 -3.021073302962696 3.2858609907102676
-11.032260517418475 -2.7225754114018805 3.2754709936566977
-11.25242966932591 -3.7753388642570074 3.329712877190688
-11.216493654917848 -3.4168343426621512 3.3163780600356967
-11.396528043743356 -4.036705989383527 3.359467776206438
-11.353616824676081 -3.7435842116608677 3.345355474154704
-11.521293283563065 -4.311940137700185 3.3868634545945433
-3.211523597312559 23.95477182873953 4.9853212454772065
-3.3813058199857524 23.38138432879186 4.88980184979048
-3.3045671680702524 23.668470585785546 4.937714296182887
-3.5903314607108117 22.67017506333805 4.772349851736553
-3.5108081855404913 22.952850374096965 4.818983543260878
-3.799181349586502 21.96550505551895 4.657314000390562
-3.7075754181779486 22.270939992833057 4.707008284941904
-3.8887382419301764 21.676873440730184 4.610751738359903
-3.8156953895723573 21.963562722312844 4.657484907154593
-4.086937971334046 21.010668308623714 4.503831584053428
-4.007702198752436 21.279035649339882 4.546743925719528
-4.275479718168296 20.356658133454573 4.399966634242812
-4.219146699564797 20.569990131952416 4.433898332224846
-4.853874361824627 18.373497791791102 4.835857778250735
-4.994228398649278 17.84937212836362 4.742473820404715
-4.936854195399998 18.13099139041895 4.793687759156229
-5.191371372304027 17.159366298271827 4.622444603961748
-5.119350074183621 17.50759827755539 4.6846604333093005
-5.307061666736261 16.86503707792448 4.5743946442377865
-5.224066278456639 17.155203930904694 4.623962729708526
-5.475840723786667 16.185887076897323 4.458206787236658
-5.4192743709907125 16.439554689307254 4.501775373517788
-5.702744047424152 15.477571718682519 4.3439834517146085
-5.642769660279417 15.73320160902572 4.386603914949845
-5.864488166914184 14.781542775954563 4.229947039085348
-5.821561222505891 15.1070420775066 4.285759928336301
-5.9163228649113675 14.764977853664671 4.23146679949354
-6.2079726297942885 13.642283710496336 4.689613333871115
-6.38118240173061 13.017773901855378 4.584422285625108
-6.325199365165468 13.361542007047474 4.646698647498088
-6.571663761862195 12.35000537057697 4.4769879936636485
-6.510947326927329 12.713194444322177 4.540393125378822
-6.701118803760951 12.055254967179012 4.437201580005428
-6.6613642141107325 12.366483675318445 4.491823966788267
-6.89741760512385 11.343948160655849 4.329952862624381
-6.830275732044698 11.650152574634273 4.377722964458615
-7.0696586050202805 10.684414600656071 4.234495554500458
-7.0209440989478304 10.97958344607502 4.280692563276592
-7.204618204724437 10.325527926400245 4.190996810615417
-7.398299681516046 9.63836493098015 4.102961676104517
-7.360553683480339 9.976303835334845 4.1540446282717305
-7.571262153628342 8.769254335224966 4.541314320324936
-7.509339185011783 9.321118701439705 4.067784213634338
-7.726741390846926 8.230750930801698 4.477368030110736
-7.627411001708599 8.573027293687892 4.517345350961038
-7.905761014050964 7.583311793538026 4.4056907603674365
-7.844997143801465 7.803712321640891 4.429472843346228
-8.024142360572633 7.204279766022629 4.370378354830793
-8.22790186490781 6.543601707633785 4.314576197438547
-8.148204379173936 6.82342583601602 4.338327852511009
-8.422827247200988 5.847108333235084 4.260659001359193
-8.32723765211199 6.176931156268214 4.284234251609151
-8.631310195190753 5.1544328650373945 4.220036879061992
-8.541109428587909 5.496418950735103 4.241875462827162
-8.72114114056475 4.824196578797136 4.202282760918958
-8.9067539388594 4.154701731342633 4.17326081066072
-8.837539244841285 4.425819876074576 4.185028077491607
-9.116329276289488 3.4365154995642393 4.154649137556117
-9.033055084294912 3.748390376312884 4.163203289913735
-9.299933239102511 2.7848054059918788 4.145455713896176
-9.241140956536501 3.0515971308299075 4.152198715201183
-9.432381691629459 2.3903226218568805 4.149410470486276
-9.371109672643257 2.7453475872860027 4.159344962855122
-9.586933289593848 1.790385258523718 4.149920147273678
-9.521109312162537 2.0642099367085307 4.149696913975028
-9.80484773911554 1.0304741970233509 4.165800686738379
-9.725412791967077 1.3467542598145186 4.160496912593005
-9.99537938861124 0.3713438982553796 4.188969245803259
-9.93234693421623 0.6222339536027064 4.181658784233975
-10.090822902254391 0.04066718757141094 4.203909735855818
-10.28549529910099 -0.6401199107000423 4.239758150072159
-10.225143272742454 -0.37997134443356895 4.228247127569938
-10.552408096633751 -1.357114578579154 3.741877393566813
-10.505181277287356 -1.1524176972463858 3.8704808556090224
-10.687807627527032 -1.7051304138167707 3.7699786428387485
-10.86965297164409 -2.3293905922746387 3.8118088736622857
-10.847452673786684 -2.0486066070642726 3.8042756921970957
-11.071585395033317 -3.063883035516241 3.865159499757341
-11.004668389653986 -2.75233822254793 3.845378351646023
-11.272719505641668 -3.7955740988236677 3.9248516262007587
-11.21469437674763 -3.4167270018744365 3.9024089017215173
-11.371450756092653 -4.009867224849601 3.95143688017486
-2.1958516789595253 27.4275746000781 5.578342884890749
-2.1336785215430796 27.648827922440585 5.616862037694029
-2.3761742190711006 26.781738244388524 5.466287538920272
-2.309525553950613 27.044252233090127 5.511859047872559
-2.4960255172583574 26.390871901002285 5.3989792706024815
-2.684370772722046 25.732416882535606 5.285956210863958
-2.60918624988785 26.0226328912726 5.335787277902538
-2.884548741507672 25.06499154387586 5.172352470830809
-2.7951576274125394 25.376479963034512 5.225332278791883
-3.0913024860464935 24.35345391370153 5.052107664546931
-3.0037487483839067 24.671582419961 5.105866124669593
-3.1346391783595005 24.221178106468162 5.029984277930517
-3.958952979854117 21.457661442114283 5.4058942409912385
-4.099411968976818 20.95219301949299 5.309586249815239
-4.05832736408317 21.223951359327106 5.362879838722255
-4.296027881696419 20.258153244355285 5.1789756499113455
-4.251425303861757 20.52558379186783 5.23069603924498
-4.499761998729871 19.546393850318346 5.047134318004763
-4.430634099244048 19.8764040930287 5.109427042461588
-4.610442575756095 19.198015555311123 4.984081086202568
-4.5680789168210945 19.597679422804173 5.061225590507886
-4.805281133608719 18.56890859441489 4.871273594893771
-4.7286999068004265 18.8359586920597 4.9192659988506655
-4.893749737756907 18.38534623831252 4.840703615554915
-5.329189961493948 16.72732959868179 5.257285122163772
-5.455996069510477 16.19932297039274 5.152566763069632
-5.392689496801059 16.457202867107206 5.203294872085968
-5.683294513690313 15.44750784869028 5.011330126747327
-5.64811605314499 15.707728609762516 5.064103732327469
-5.885621239218845 14.747688814768136 4.883073811433445
-5.830261395812372 15.080775942756636 4.948015780628114
-5.996427181609554 14.409665750086207 4.824202860846849
-5.929733291857553 14.755140744505587 4.889426152875014
-6.1646806568818375 13.825495418845508 4.72216415998944
-6.109542139350833 14.068126396601556 4.765737227442325
-6.356811974626669 12.85476350337273 5.171980061657039
-6.5254624958669 12.33151054002362 5.079868534655673
-6.4491942076369755 12.621688461817305 5.133220688288156
-6.634209831000267 11.996654304758222 5.023151799941153
-6.816865369632983 11.364358168009346 4.916283620999819
-6.75882024183021 11.614471001212388 4.960046131078959
-7.026750463411351 10.653152696216889 4.803600586542657
-6.9387921384362725 10.966599067730508 4.853064453878074
-7.213951184760355 9.979671725800518 4.701882086402624
-7.146105429018619 10.248627651662003 4.743030367456334
-7.327824996263733 9.64168027212321 4.657356486316898
-7.507998950768294 8.99862369316499 4.5707896192906645
-7.455346614757633 9.257292935368934 4.6083422495041235
-10.361534351752123 -0.8773513318815712 4.255955652580855
-10.482232202331542 -1.3486190571796102 4.284177688659997
-10.399271717211366 -1.0316208294746914 4.264401636205157
-10.68114036576523 -2.0623235832376023 4.337499533360005
-10.613028939836582 -1.7782334436247975 4.318030468801249
-10.815060144551637 -2.460356363562634 4.376409780807752
-10.965848051309024 -3.0301106469316745 4.4261742313985915
-10.907389501034068 -2.7706378266110088 4.405127626116716
-11.181430434393526 -3.754567547801662 4.501719037156674
-11.102037385481506 -3.448835527723076 4.471590602641594
-11.31545754781654 -4.1600511270548495 4.550228919577064
-2.10296013967839 27.752828303025762 5.63498091344732
-3.074133361070726 24.372105491776058 5.974502863567539
-3.0504406225558833 24.527947705511817 6.006375102398937
-3.214961649414355 24.005846047998958 5.902665154713058
-3.4013212490514837 23.353862807231113 5.773540821097747
-3.328357029690264 23.641712073345047 5.830711869889306
-3.5742616356058834 22.679252228269156 5.640416176042114
-3.539050474732533 22.917348469398355 5.688261530919547
-3.80012912719753 21.94759575265343 5.499103455684325
-3.727676133826903 22.230451470290387 5.554177337078034
-3.889190583569138 21.72178968296564 5.456764262932309
-3.8467101336090392 21.942639848997374 5.500122100162315
-4.599650818440714 19.202957719464926 5.759995316874504
-4.773121403381201 18.55221486816159 5.622837720013407
-4.749950865550857 18.843483328488915 5.688055914877513
-4.984969652082564 17.81281050512705 5.4709552948258375
-4.918633072137006 18.142313223634954 5.540507174088703
-5.1729277400927005 17.116201320020103 5.329879716424107
-5.123894615790291 17.4465205938209 5.399944681673225
-5.260183574979803 16.999495179552326 5.3115955131043116
-5.248673149067645 17.156739602825567 5.345716357646685
-5.48313552944995 15.807840544959054 5.762413308276878
-5.622792108638218 15.420242437327945 5.682951393314159
-5.545557445832693 15.706566922232975 5.7446062277935
-5.827494386626536 14.712674399809694 5.5354254954531
-5.732786200809122 15.059651390717068 5.607905277146682
-6.005225054493722 14.040111601039676 5.397616760502729
-5.9444744774822995 14.323104413988968 5.457070810153101
-6.127611825575765 13.692120802918643 5.33250821332728
-6.026973602357832 14.04012608860215 5.400582993249085
-6.313317439640405 13.054637105111064 5.211246663160085
-6.235854208806908 13.349767381219705 5.267956128282397
-6.3903392518154805 12.867633554657882 5.179869177662298
-2.5569529235583888 26.02876270631671 6.30805372170576
-2.500685560968349 26.278765056094855 6.359525333083445
-2.6748962210392353 25.74408866213208 6.251049009253793
-2.6268617656470674 25.99256016459781 6.302207037935324
-2.905963444127538 25.01813898990288 6.104725079316451
-2.8325265590259567 25.31720498939929 6.165459878101266
-2.991615355557605 24.793676935678036 6.060212253585535
-4.774823967754286 18.29225187152998 6.324205130815619
-4.907141757456208 17.848049757120446 6.2209822479222066
-4.828279464437592 18.13367469757757 6.287777757001718
-5.111035052639084 17.144883724020094 6.059842611916062
-5.043214119921797 17.402049909760017 6.119051036929706
-5.3150161503580415 16.427583833271697 5.898952853779109
-5.220609684073165 16.773698798483036 5.976588509269204
-5.412363792236328 16.113483851302924 5.830898625153388
-5.338238166433114 16.430040747774893 5.902186796984116
-5.509212487214884 15.815286355686858 5.76735784009916
-4.415655656107144 19.424531622167823 6.591569941222327
-4.604816632331324 18.842478519509886 6.453439792395365
-4.527239515463422 19.12535444601212 6.521654680929947
-4.692550965951836 18.56134413166047 6.387264931530017
