# .PCD v0.7 - Point Cloud Data file format
VERSION 0.7
FIELDS x y z
SIZE 4 4 4
TYPE F F F
COUNT 1 1 1
WIDTH 574
HEIGHT 1
VIEWPOINT 0 0 0 2.98023e-07 1 0 -0
POINTS 574
DATA ascii
10.12859436637462 23.31701058076655 -2.539148125499901
10.1339811639321 23.06775410991036 -2.538457752962427
10.345161349307615 22.706078757167482 -2.5379282478152847
10.452711537591265 22.481608814463712 -2.5375798821762867
10.650828747521192 22.156329559924988 -2.537246344632319
10.911287146198081 21.75779317790256 -2.53698248373614
11.014027981772823 21.527583846213705 -2.5367402304647855
11.242356668481179 21.17094470846902 -2.536655062160303
11.398050569023667 20.85584390438176 -2.536496833513882
11.525668229688355 20.599959862579734 -2.5364273052811543
11.79348232979146 20.17148740527999 -2.536605687305162
11.922660823955669 19.90146572747951 -2.5366318043875706
11.961151984022303 19.901148933452603 -2.5367855623972653
12.070373462350165 19.588288578582663 -2.536726849004485
12.235694383330722 19.213883862273462 -2.536866637158287
12.361261538104305 18.955564706819928 -2.5370724640615183
12.572139259411927 18.56453021503238 -2.5375720072292176
12.714379835811753 18.284925506570314 -2.5379513044372906
12.734589575173757 18.284794003766187 -2.5380498503040916
12.883748511479647 18.008691361496147 -2.5385465721813523
13.128760385425387 17.586045512994687 -2.539500890279838
13.260723845584508 17.329072146197056 -2.5400609382780943
13.453855961611326 17.007682731106634 -2.5410133672603554
13.651634923633384 16.660476657991783 -2.5420669999492698
13.788696004109994 16.435193066497163 -2.5428682518774166
13.987512395482751 16.165233738056617 -2.5441049498653467
16.950332428449613 10.979896791761256 -2.5766100852856204
17.170395115731207 10.610420441348344 -2.580062827389449
17.303941690169108 10.358654665179804 -2.5823387820263686
17.517551419450303 10.042282545816718 -2.585740124795596
17.612825113598905 9.753645035494195 -2.587968192078435
10.058814916657065 23.046464336400405 -1.6195911523236641
10.26337142650506 22.67972969675186 -1.626992646137845
10.390037505679803 22.448456438527256 -1.6316504172260342
10.61609739179323 22.06230023273729 -1.6391306654602167
10.784544944930552 21.779392706857966 -1.6445160042298583
10.940782503333029 21.496535510178642 -1.650017364000179
11.16430399440166 21.10842513796304 -1.657339671354026
11.307250743937228 20.824483309556523 -1.6629535796196493
11.329604393906148 20.827650269765357 -1.6625231092733925
11.4743537620882 20.552489570165513 -1.667800964106731
11.724418531836568 20.129013454101436 -1.6754019808797742
11.841501492890144 19.909355629992422 -1.6794961334058969
12.031309423314704 19.594424325602198 -1.6849368516885317
12.254726609677347 19.216433859391195 -1.6914455092073521
12.397525742349963 18.94912083037675 -1.6962245225880288
12.606705533183458 18.593014622651495 -1.7021801851668381
12.805102241319972 18.254883035752233 -1.7077557305065407
12.92599870948679 18.03537189455703 -1.7114468468079396
13.1690490086038 17.626817874933323 -1.7179068774853319
13.322827867303427 17.339155899684886 -1.7226769126488461
13.352604389873436 17.339037678641258 -1.7221587201059103
13.492434881375928 17.05968793195271 -1.726872591863324
13.721389908434364 16.66740735394631 -1.7328153859573276
13.841876287050047 16.41503568001806 -1.737048546153864
13.993425686837169 16.191057206286786 -1.7399476089935324
17.08809722208789 10.875047057730429 -1.8032092310175167
17.178039436679605 10.647948309649683 -1.8061476529911669
17.310268744776643 10.393181310753556 -1.8087407033478886
17.38844725130614 10.365570602131019 -1.8076554906359938
17.514164524812887 10.068631161678951 -1.8111685594085691
17.743296437693537 9.697655934491099 -1.8139038985216076
17.91307552127246 9.412344484751392 -1.8160467552928377
18.107239999477493 9.088989296355845 -1.8183185536929527
18.295812807915667 8.73933686028604 -1.8211412284669715
18.40696771415221 8.51126053900651 -1.8231680852235443
18.567133963491006 8.120187421589428 -1.8272081488512817
18.675738668682776 7.820769098807325 -1.8305237786491293
18.86085213792691 7.47345257713351 -1.8329320360643178
19.051425285186387 7.149935114969409 -1.8346799616600924
19.18145759422461 6.8945785795450005 -1.8364298340077383
19.423858270426233 6.469341502522283 -1.8386274076528735
19.57243610284468 6.197818590845943 -1.8400912453409648
19.59915282962573 6.196234341404141 -1.8395114282960585
19.739738270415742 5.915555968886684 -1.8412247704785227
19.992854272495187 5.5002296340691785 -1.842609621241635
20.12695189737577 5.243200548103548 -1.8439040792736
20.299651259357034 4.994296614205602 -1.8441012638840277
20.556494450306772 4.56163255001663 -1.845321997752414
20.68856075752937 4.33351855379418 -1.8459717210357214
20.896543678874515 3.960977818277081 -1.8471042258271075
21.074272939660137 3.66229323117848 -1.847680268578598
21.209426054086762 3.40883975076308 -1.8484617168209616
21.456097673896988 2.9900196637553362 -1.849094876693461
21.5960027511445 2.7092451255699097 -1.8500398695863876
21.62436286523939 2.7094218560664465 -1.8493756135316577
21.78258245125894 2.4273990068236544 -1.8498303275802281
22.028013212573285 2.0217807595862745 -1.849968681332729
10.012500521466276 23.015251580838324 -0.7021610076213407
10.202557294194198 22.676914517407997 -0.7163561949097057
10.32286955335037 22.45699538155083 -0.7255553257597942
10.572143981994497 22.03078291654189 -0.7426118462763616
10.759132490246403 21.723771809488003 -0.7544550466973685
10.886018453778876 21.492066682901616 -0.763692710464366
11.132171999445905 21.067213367409813 -0.7799250091097554
11.244594532737407 20.838937539508855 -0.7891776105697161
11.434853474946054 20.519874677990703 -0.8007594312903792
11.669983041694113 20.116686550324104 -0.8152801696245602
11.79650077974043 19.886637390378155 -0.8236657084038357
12.000195094862413 19.54765579026469 -0.8351559196429856
12.21962970801242 19.190912382466035 -0.8467930976582065
12.344446145890105 18.938850242869215 -0.8559345874452771
12.583411594142037 18.54253874312373 -0.8683927517631682
12.711392682716163 18.259023243938596 -0.8787559503445517
12.74524398874946 18.26326132869271 -0.8772163121218397
12.885072374428054 18.00854325421788 -0.885349383822688
13.143979993458014 17.578033879007254 -0.897862432477802
13.261392910435678 17.354846283986806 -0.9048464310111226
13.44358399679717 17.047006701048733 -0.9134015265163784
13.689360586893228 16.630067665695645 -0.924654555196248
13.811929107443637 16.39789236587681 -0.9313063641635464
13.964447217961675 16.18429658737514 -0.9356078300907489
16.653900121352006 11.47417290165282 -1.0248372266369898
16.732761482803067 11.29035578126909 -1.028275393526163
16.773406324094953 11.289107561784608 -1.0262660010890796
16.895269169906573 11.01113168047955 -1.0310912309759137
17.14996138371286 10.594419515090735 -1.034263109742132
17.266220355399952 10.369097331557809 -1.0368654249369653
17.484016982301235 10.031159664535306 -1.0381588657054683
17.724634559874364 9.653674039878966 -1.039354973101369
17.86001457315565 9.427293098930686 -1.0403083996011624
18.071138651390722 9.055961916659733 -1.0420801519928655
18.248917004855574 8.71528211212593 -1.0442350004735022
18.356130132375203 8.489242892399984 -1.046019577564896
18.611567471438413 8.05747328298092 -1.0462855290234392
18.720670795421142 7.830464372227043 -1.0475995696112337
18.798319533877127 7.80669780736525 -1.044092569703253
18.91593553131956 7.506673344302107 -1.0469696354193825
19.13474158837171 7.131182907211684 -1.0463073085414962
19.274141052476402 6.8757541108075655 -1.0461373368995288
19.475874703891513 6.531232402298369 -1.0448033783393436
19.696061562016347 6.177539775153929 -1.0423846513457184
19.810428934943157 5.947001050200358 -1.0422244745682887
20.05314448137893 5.564858437992915 -1.0386371323626693
20.18328520731018 5.251929782853401 -1.0393111929091807
20.26516612401661 5.228144193765707 -1.0352505424839267
20.37698165698742 4.974451953730582 -1.035182895956794
20.611935004874105 4.556038534154774 -1.0318494016815205
20.73065471619809 4.341479792869048 -1.03007389716894
20.935499461694224 4.017847315311548 -1.025622502374313
21.158793655740574 3.6435893933600614 -1.0209503104907633
21.286652514520124 3.379294445624979 -1.0191554345451774
21.499972105747947 3.048961553694402 -1.0135326747078743
21.715703728764623 2.6897428706764863 -1.0080868547417285
21.828355854599486 2.4575137779810947 -1.0059327814095684
22.081800084457704 2.034453748695515 -0.99888068337351
22.176947804316164 1.7684691630749136 -0.9979902825580609
22.314965799477672 1.7346706064437951 -0.9905277979006073
22.398339040061167 1.516835807901426 -0.9893080480848697
16.597102869870717 11.517142223554295 -0.24885732081631806
16.67659587042773 11.315247557961795 -0.25443555389018657
16.827197171101556 11.255315415064791 -0.24581071835766144
16.91285285465667 10.992138395530873 -0.2540466368273746
17.167700982793576 10.596433039540967 -0.2556093012233309
17.249901171648325 10.360569451002902 -0.26191127558312655
17.484602089065838 10.020812195518744 -0.2607814026651605
17.69911633951092 9.67266555646553 -0.2612219719509774
17.799271630823625 9.404489836965853 -0.26658151364283444
18.086853559975445 9.022266609316636 -0.26127455963005586
18.28199869612609 8.75110981239438 -0.2578121347909188
18.405924547263613 8.464511624625056 -0.2607554869395474
18.604595910647625 8.054643342529058 -0.2624544244819127
18.68745472527861 7.777171138106008 -0.2677076511779375
18.823403305398077 7.796339242791266 -0.2549471464686368
18.904765520988338 7.540884232154595 -0.25895534136819887
19.189959493730395 7.0909914502897715 -0.2527980443328772
19.259841427724812 6.827056149478357 -0.25739830723712975
19.48970358070178 6.546305672940674 -0.24801643777221782
19.687022129441196 6.167475566581132 -0.24488297614024734
19.74170416843573 6.00281018199313 -0.24611060724729006
19.891240622318083 5.717420290047178 -0.24299354599337653
10.004902342946776 23.02383253650435 0.22150304534697351
10.200865333131098 22.713981769656726 0.20271187006495417
10.314591608824863 22.423295137878057 0.18207644367457343
10.569327900124438 22.029492791972483 0.15935161110545604
10.676314512332295 21.743175358795195 0.13924571653604767
10.798024689161283 21.70409679716576 0.14190630113053748
10.894209256254312 21.48810494750356 0.12776546494145702
11.096890035513132 21.08697818142002 0.10307738435680491
11.22348506649929 20.819895801421744 0.08645488491226372
11.419908084111922 20.50383677947177 0.06963520899980002
11.709505866373117 20.089639721753983 0.049926428646431376
11.785504444746083 19.859486591972637 0.034559150729109867
11.993373967839789 19.560416189200538 0.0210199676938978
12.265372774919227 19.173017054210426 0.00420239473600903
12.334322117286648 18.911899888369984 -0.01341499015863068
12.563136325613604 18.582213492258443 -0.02698540473717692
12.689239784371214 18.248309482137664 -0.04664601517403488
12.786838888492976 18.23242189386205 -0.04199849417632162
12.90274569036929 17.983131193189916 -0.054976440878282684
13.16449607319048 17.587219737109866 -0.07029047761289098
13.26070014597313 17.300515242960856 -0.0868890328247156
13.469195812292178 17.02670408202471 -0.09490008056995558
13.679170517862346 16.662363553738885 -0.10942233282587654
13.824873832235362 16.401351210713006 -0.11974665653934702
13.94153397326957 16.23241241042461 -0.12477812576486436
19.96039923795051 5.8482303031304 -0.23203163717316322
20.012115175214802 5.65230482620552 -0.2343551671695714
20.3440494063877 5.161593181610764 -0.22111316940566939
20.405467647344036 4.919672098557211 -0.22344191219628584
20.607163628405992 4.566913767926069 -0.21620712690972477
20.738720628657358 4.3060238927848715 -0.21212651184411913
20.958890629419294 3.9915514514350385 -0.20107544836748703
21.173832901370098 3.593875476273371 -0.19236818974409697
21.31568374861635 3.338540174946256 -0.18607690064558424
21.513584659648213 2.980064795922132 -0.1768372716795854
21.832378956299788 2.49707848790641 -0.158765919660099
22.077980136903342 2.0805085391663547 -0.1450995869093057
11.751393481757306 19.72846790016236 0.8832820098479175
11.946495210742427 19.45832791370718 0.8676573674913843
12.075173725422843 19.1795929809372 0.8462603710676189
12.204552201433655 19.127919510964187 0.8506707411278458
12.26474561285764 18.887585097019556 0.8287066875374105
12.52221540345578 18.478102550144946 0.8042516978483389
12.623158834720401 18.26099461704278 0.7887481075503082
12.827655735307472 17.935331213344597 0.7704819831760128
13.105837012394899 17.54676883838595 0.7525216373640689
13.184580836717025 17.2924319613128 0.732300562862132
13.418176298330927 16.94845253521422 0.7167432269173504
13.62100691464546 16.64984702806665 0.7038287023000898
13.733540999648165 16.388102787753766 0.6872128407562426
13.966114105706795 15.991225606414202 0.6684064751003449
14.096414755866514 15.681062954683371 0.6495289903840704
14.137075258535875 15.7035470976111 0.6555499790055297
14.249631317716775 15.445652361656325 0.640809245017985
14.550320419263135 14.993145394301433 0.6256502018340835
14.626107152597433 14.768756362387967 0.6115690155266611
14.7404673769756 14.757571349426126 0.6216449157980279
14.849579696650279 14.434046145249344 0.6020087178841362
15.097075533757211 14.058161921696048 0.5918633372030588
15.16894707582521 13.815855991840525 0.577058328415843
15.407355665301528 13.46072548526567 0.5696174122157283
15.653765326958718 13.098151674058565 0.5632228007313156
15.746896485984218 12.884518231422106 0.5545644936403957
15.945034189795672 12.479779811001341 0.541187615746086
16.066577546683856 12.230123226936158 0.5333394202759969
16.26463692677731 11.906434749532599 0.5283321957940403
16.512280134391613 11.506324935514561 0.5234625688731471
16.636461742464768 11.283215585504019 0.5197152603392348
16.852474331694914 10.932821069666339 0.517024531259747
17.104606191493435 10.569870995099063 0.5183368072959302
17.186497760346047 10.368119979967496 0.51294512653755
17.457612246464993 9.925252682715819 0.5125341564505597
17.65792490427992 9.637238311196777 0.5157804036472431
17.739886086719533 9.377545900654344 0.5078692058637473
18.011954711709784 8.99267402501243 0.5145130346094282
18.04750782399501 8.73416923085362 0.5022126049021223
18.245777366665745 8.698339262694258 0.5234247669578154
18.299151606344115 8.481583374653304 0.5163872541603185
18.564995956342145 8.015108808110876 0.5201862962943458
18.631910213765988 7.787855675879062 0.5149879126412009
18.86879521009789 7.456054658876913 0.5249632585907893
19.120774382797737 7.085684011122149 0.535476920191607
19.183859018865434 6.860802533785849 0.5314085408460416
19.439593281448058 6.467157254145288 0.5428614477625167
19.600966394854257 6.171862278022919 0.5483257433921276
19.723113049087676 5.957247568440598 0.5533915597220362
19.974979084489643 5.576034118670037 0.5674089807449696
20.337008896202597 4.880568517064338 0.5833087759195812
20.54675339665405 4.556559276153947 0.596923351630994
20.58885542990185 4.358202956449817 0.5947135899709681
20.90445026559337 3.932083828351423 0.6192594425167757
21.124424090540597 3.5413959095379384 0.6339236537342932
21.21526324942781 3.347854162219733 0.6392860862681031
21.473536109857758 2.9380740347492527 0.659681058800802
21.550296260334324 2.6847711862698325 0.6621462724298439
21.778014404463118 2.455248705269432 0.684986613373006
22.02278399778428 2.0316338288750537 0.7054907727249318
9.789558968702533 23.196918739877898 1.159162291047502
9.940891388243445 22.92856127381391 1.1358395798738994
10.057402125198989 22.660313327439933 1.1105227679878804
10.12747540674025 22.658660612340256 1.114791039170734
10.247151025444088 22.380637352094695 1.088910497603294
10.49754545881918 21.97666171922845 1.0567989154102668
10.593776899007624 21.739780919208528 1.034908672533101
10.814756071125146 21.42921224177851 1.013086571709318
11.010095298578092 21.082609443579123 0.9857579508290848
11.151046366491126 20.785928757343598 0.9609914013601308
11.365432985568676 20.422225486692284 0.9342199281353665
11.598177433042439 20.101448292786234 0.914403059461848
11.691662716025025 19.89942343038832 0.8982887436659812
11.861653466480307 19.740067428056776 0.8929971455011305
15.67890697349024 12.741830641754953 1.3226950642591286
15.873738159269324 12.42865507890756 1.315884890259464
16.003466450992814 12.200145872121425 1.3098292632063262
16.231781674293668 11.814073708453037 1.3020666161178585
16.402877322598165 11.534354477354976 1.2980086081653988
16.557545191566952 11.2537304407839 1.2924328650175982
16.7977745280317 10.85715388408667 1.2889053194513869
16.926744357901967 10.578883671765256 1.2815394313421793
16.95891607530151 10.577807403337973 1.2860667201828044
17.10200900203249 10.324147227166433 1.2838266344268874
17.344395520706154 9.898499304283876 1.2816562195272114
17.465134126795025 9.667163184273416 1.2795186740394477
17.652381742500253 9.346069431456577 1.2804703852336448
17.891506104061396 8.939805298531512 1.2832387299573145
17.994273353080967 8.73065436541997 1.2822540137490983
18.158756387952447 8.426094042399432 1.2837599693609154
10.791274634031083 21.249960812404122 1.8874480987922788
10.935045732298951 21.00959588814313 1.8644146862831987
11.056711496296272 20.778091692363677 1.841137712146622
11.313283870778328 20.340398906205454 1.8004112606856384
11.457944444680502 20.0983206224376 1.7786703402912747
11.48255001085856 20.096470930176274 1.7807130231437047
11.626091284963927 19.80625190406344 1.7525090700417603
11.853099782563696 19.427278623820822 1.7202065900031775
12.004571672367303 19.14374155679159 1.694897340072861
12.18506308249174 18.847574601251694 1.6714158691766206
12.398732395523343 18.4790939316746 1.641871359547245
12.52412144894434 18.247642448780763 1.6229764607581312
12.764294826255636 17.84536775062004 1.5934809265966297
12.953074764911351 17.523223728761074 1.5702879882652163
13.072428508755843 17.31270688112897 1.5552694015318935
13.33108598891541 16.870219400505686 1.5255964950965217
13.467077497686292 16.613935544520093 1.507524773776351
13.645347369672075 16.32092264442021 1.490266872638684
13.866193014764292 15.942784567758308 1.467904095631324
14.002160639945432 15.687628613291844 1.4519567116424854
14.194217146358218 15.344424424409187 1.432590947677053
14.416303561956221 14.991615854538262 1.416592371263468
14.530805750384255 14.770188082760521 1.40413070942133
14.785583390717425 14.346736435849877 1.3859855936592123
14.978555948142555 14.040242924374915 1.3748721807830684
15.085346169695187 13.812025168815804 1.3625701627055458
15.34352317375422 13.382111425702432 1.3478893471766713
15.484777303943174 13.129400863586993 1.3386288370659534
15.64539436381276 12.85162147818798 1.3300024474563177
18.00105131207741 8.802749482388544 1.2888614889529841
18.06307669682657 8.675006813571487 1.2882855765859857
18.2375788769326 8.341600582087366 1.2894312005039326
18.419706380767266 8.04362588690357 1.2951613545441991
18.542507118277875 7.787580858882693 1.2956961998759478
18.780489373005985 7.373646707104099 1.3038289504016087
18.932394108093142 7.090591795329916 1.3085144465385707
18.965822973873475 7.090241423441589 1.3136975411152285
19.103783756273476 6.808878075318393 1.3172132192480608
19.35454685603582 6.391533786867579 1.3308156722644853
19.48292905761679 6.135747150447164 1.3358948798201395
19.69184951326896 5.808515827794968 1.350436321577908
19.88705203521764 5.470614047488954 1.3630461004859633
20.010654496145264 5.240230701568377 1.3707456894694872
20.23483007852103 4.835707146922723 1.3865320892813786
20.3554861955302 4.5369411803249164 1.3917115113183987
20.430955778973445 4.50863728736867 1.4025671196493223
20.555879779417 4.282594402281735 1.412573101910124
20.82020049235624 3.844796639892459 1.4366555519916502
20.905562989971013 3.630224015475924 1.4417724198048663
20.98547048487004 3.5992192809633425 1.453523113074891
21.109830252352207 3.3307763875010403 1.4635224753649467
21.36245694849617 2.9067945077159374 1.48945474734863
21.46992282483415 2.6738465847226 1.4991510935079146
21.698751216089306 2.3050950193052744 1.5250316062788598
21.92114229142539 1.9451165351586268 1.551014152701292
22.023468992980654 1.7515440111734488 1.5625660474319747
22.26043566653967 1.3478389112364715 1.591433166607548
22.46579007732906 1.0288697063238268 1.6179205959086054
22.560839097451645 0.8160459075924131 1.6291771152688326
22.82231553497618 0.3669569273893318 1.6638472305418204
9.692870838051343 23.157581414172938 2.086490484682383
9.834552823626714 22.910522485796424 2.059470018937166
9.97134665977756 22.662531780494803 2.032219060360648
10.15391092061873 22.358012282984312 2.0005044473957185
10.381331061851215 21.964762619861066 1.9595767423039345
10.5268897698753 21.70582494890649 1.9328183896296616
10.674746465784924 21.47547199087293 1.9109454379486288
13.102292841213936 17.06573840071445 2.3602526590205337
13.36938390142671 16.807199357925526 2.355572370399926
13.461247069079926 16.599088546446882 2.335524307726709
13.571158273851049 16.592079642732816 2.349637808312218
13.649518678676378 16.330819362673807 2.320132309779417
13.90415286947791 15.928053774751673 2.2945466623020505
13.984413194360494 15.68034124148104 2.268693874077256
14.201361933512887 15.329049644058985 2.2480067540039035
14.417821578050484 15.015750695425549 2.2340590131380664
14.54247718908224 14.728234943964233 2.211208782864078
14.76227074866002 14.37644235990155 2.194676529433979
14.898616125456106 14.05253184733306 2.1703210732610443
14.984351130854192 14.028025419865319 2.1802857460428524
15.10465929212908 13.80383862355206 2.168324616721034
15.348263924774601 13.391203933057737 2.1512199265924905
15.434164333928022 13.13184342484767 2.1305837561827388
15.531454590351176 13.121399792844626 2.144864553805848
15.634799588743027 12.83324579864314 2.124283585430907
15.85912050682589 12.41591464820473 2.107921537261728
15.961832226486154 12.20458875256484 2.098602047531664
16.208372476253228 11.799809547499203 2.0905449923634394
16.421033579620605 11.488194963739616 2.089453996393177
16.534024379297843 11.26181857114419 2.0824365651345755
16.790108081281925 10.886558366646765 2.0839623422092557
16.924895068693623 10.567222910825217 2.0719394223175933
17.00951531845983 10.539706910283252 2.0837753956209943
17.099369391361044 10.316631200504318 2.0755652539506086
17.34839377500368 9.907241453069314 2.0766585856112854
17.444834987973184 9.612252489643296 2.0636980813378165
17.557572639403347 9.636818452152248 2.086422462005061
17.69168416210035 9.313455678626097 2.078601233108158
17.940731086027867 8.939036946054072 2.08786952431853
17.955134667442174 8.742115588997555 2.0720407065022326
18.22966542653877 8.381410387713656 2.089802328703733
18.468930373774782 8.016445845866677 2.102193566116227
18.55658869926277 7.763271791925009 2.0971601756493468
18.793033673638625 7.413683952288294 2.112990477675186
18.95263534598304 7.081326498975847 2.116838880576443
19.12775188119135 6.781521562367144 2.12747211748943
19.36773044754366 6.408322727642461 2.146251874480123
19.430872595097668 6.164017554269264 2.1412105586231607
19.584502179695466 6.142931179090814 2.1692827564272616
19.683554949898923 5.90084311130325 2.17220941343933
19.911856084286995 5.448775995399767 2.187368633367313
19.989974175250303 5.229834917998558 2.1891562547494456
20.2326551497307 4.8454483655930005 2.2141432943502894
20.331223301672 4.530530822905554 2.215943146682313
20.451708731405216 4.552222735652053 2.240787034164757
20.52503950453122 4.25906149021363 2.239850735588035
10.219870225618967 22.167729336490027 2.9035532682957093
10.367888112461802 21.955548161496715 2.8795569221096255
10.483526925324052 21.72022329404218 2.8485173154519825
10.72394631345097 21.337950489925 2.8042820167135907
10.83420145012615 21.018220875868785 2.758436744939631
10.935307084867452 21.008661141780287 2.767574254472406
11.035511663940348 20.739409340268097 2.730467777041089
11.294551763783796 20.35328765627042 2.690738834130625
11.399943381152482 20.115947471362897 2.6608601502959144
11.489498017609321 20.086098576944114 2.665824886432921
11.602705298049077 19.81744813079846 2.632093300634781
11.864333105688699 19.399856353396082 2.5905781141487707
11.966770980332747 19.162026694160186 2.5620718181340645
12.18091512941702 18.822281256349886 2.5304745755284146
12.427259223925207 18.45491520176299 2.4992912966256475
12.507522216338902 18.224740847127578 2.471134825815701
12.779115169850163 17.83400629903327 2.4417102702388207
12.849460820945481 17.539807308117695 2.4028844803733986
13.006765032519189 17.541730955201377 2.4239150409662993
13.094175660578609 17.276153132786753 2.3928298485167674
13.286107694797927 16.995023842772095 2.373846867376041
20.66038137019508 4.161665340964641 2.261451861648862
20.823649073378306 3.8789711827691167 2.2798457634751546
20.86508848428852 3.5923858922422256 2.274560971460159
21.067980324206285 3.5685538002159833 2.313642589357157
21.12065818609937 3.29132381052708 2.3120125847485977
21.382186838930807 2.9205595948572887 2.348678428253661
21.447269317660524 2.6996894640667457 2.353081047334942
21.598223686657082 2.6609499348935297 2.3816768351733457
21.684091132718386 2.3525216679450818 2.387829793883936
21.86870904153421 2.008898443562285 2.413218710506014
9.659380056395257 23.202232573722426 3.0411733885563392
9.822639065212254 22.89407071780792 2.999120439304494
9.93060947048417 22.63546562254958 2.961419501972751
10.130463205509937 22.365148255901268 2.9310174262411306
12.268015795772726 18.544516073131668 3.3638211270123146
12.245847235463282 18.43981257948857 3.3399654310481055
12.362239783613969 18.47028642826466 3.3630736747988013
12.479292823090953 18.220811241389697 3.331764384092
12.726059935874389 17.97651235350029 3.321677004988754
13.110752193194745 17.232412579023435 3.2395955799523954
13.46529337814785 16.657247517362656 3.1895887768763536
13.536628261540079 16.592532912729354 3.189362706991925
13.615521583208547 16.251787928743568 3.1404758132263146
13.913050688940816 15.905213295222788 3.1281370177553494
13.960704057066907 15.64350646512824 3.0899141527901075
14.176735990641374 15.279591785697088 3.0635580340993758
14.35877767748413 14.982183334910435 3.0441779735579906
14.542493182384382 14.722895639815478 3.0328519421750175
14.754923899985632 14.343573680143017 3.007865350132431
14.903189846017872 14.041887377615495 2.9854021508714523
15.087455849782293 13.746382039799148 2.971940121923786
15.263234378120861 13.436380220231415 2.9556573654658203
15.376111960286691 13.145233850816654 2.9317003946804765
15.658844347113837 12.735890893071568 2.9236100145099715
15.897454191359165 12.394984856452849 2.9192927103351978
15.963375364064325 12.170548365688635 2.8995487722249504
16.19238052960052 11.844441855688201 2.8983334174918993
16.303203991803606 11.492907517445952 2.8713432560235552
16.389146915257403 11.508040335194881 2.8907123947995097
16.495427892644447 11.248955650921499 2.876926181408647
16.73782585662247 10.822813178022418 2.8697351846207657
16.87196586106059 10.556737773799693 2.86287983385999
17.804567652799484 9.201815374314833 2.896513171943066
17.910013101181228 8.97854016709389 2.8943214062127276
18.873583377248146 7.143688858134507 2.922112500800442
19.087332026003224 6.816322427401333 2.9413017081684214
20.19093456813758 4.784001304002619 3.0398394140710985
20.21473554990419 4.579779357877521 3.032261006251908
20.41727142219085 4.564155493177822 3.07827573158291
9.939086778046242 22.539962071507755 3.8919356654572277
10.126974842525334 22.260680586714535 3.853067209323679
10.390275983990282 21.97557696655014 3.8225957639354156
10.496296817918461 21.691839102820012 3.7745710668346892
10.712876505717611 21.30801922856005 3.7195397469221843
10.930655226759482 20.983188914376683 3.6782525339471204
11.015681541620895 20.710126461623567 3.6319263051104653
11.26473934898438 20.38098569654472 3.595799352832574
11.37986179642217 20.073357051978917 3.547470216820154
11.603094517591977 19.78303512435843 3.5182431355957013
11.85757393757678 19.38395433815224 3.472410898463569
11.922265793282609 19.158369537887843 3.436131418443335
12.133736589664782 18.856152797104507 3.4060288413818145
12.396293841050198 18.56739901919394 3.387151773727352
14.189036957795205 14.959185015297285 3.843323969581362
14.400937705018263 14.65321589898048 3.8268984363704077
14.63072783984798 14.266234561652698 3.800278198919194
14.755349273761775 14.02799398115675 3.7815354924136533
14.964070886891227 13.674748077224622 3.7605829685775194
15.15380182739605 13.36812462427637 3.7455862470752748
15.271610125163646 13.123359684643924 3.727580304467686
15.51451497763014 12.734991820589602 3.7131271400870243
15.663984174704362 12.416898195466114 3.6918712736433092
15.696506601267965 12.419473945325105 3.6996155985544426
15.827418348514348 12.147751959590835 3.6836988039910765
16.091899396169083 11.718554120144583 3.673821008371886
16.197534541808217 11.492346167204271 3.661945421680992
16.404827339475727 11.183044135742714 3.661883324166166
16.648443609874615 10.779181471930094 3.6577221750024465
16.750046032554987 10.568699415899895 3.650638615319036
17.001606781650484 10.188051584034678 3.656000409405331
17.206645433115323 9.854111192684453 3.658749466652052
17.314239064025724 9.609686561792348 3.6516948110924665
17.56108116070275 9.206639348168258 3.659091603147808
17.687055661026502 8.930123990782235 3.654755215172863
17.77142382835519 8.90440869707805 3.6725668458266383
17.86819707977021 8.656268897736146 3.6660052926656905
18.12602810280537 8.235989922538959 3.680419970743427
18.227573470263174 7.991878416664791 3.67778465887053
18.41265307559082 7.680078038460979 3.6900642491312046
18.669293940788098 7.290684556813768 3.7139219244055677
18.770084580703344 7.048903592948241 3.714911622652999
19.0024924603161 6.674634619724113 3.738001058491769
19.191833711171732 6.39068286319141 3.76022923440938
19.27210065748958 6.142330689308286 3.758500159215614
9.632156993285626 23.145590306761818 3.990055531335757
9.792082362712282 22.90001334037803 3.9539095721382984
9.871426330251612 22.697102209214652 3.9185192555935795
10.049637511129122 22.60514407282575 3.9187381559283927
11.532985541844502 19.586517547084345 4.368499263729461
11.629876652693888 19.38295091080256 4.336222922688199
11.663897183826755 19.38348355640121 4.3417918849213155
11.824806206826887 19.07869072059653 4.297123586216699
12.051319945971327 18.71671477551346 4.251229782432262
12.171149168252898 18.470215813637886 4.215093464955432
12.375607593984952 18.145942421933402 4.176866739789755
12.616484788455596 17.77686658630444 4.136450861358808
12.734348518635267 17.51258857574307 4.0990156277047
12.94622316711887 17.177719362011587 4.064177430102955
13.167716207136854 16.825168703654906 4.028830352252518
13.278628235571906 16.595350963639458 4.000644702946163
13.536710517016056 16.158570907441536 3.9578195702811185
13.652428610540372 15.901799962565237 3.92687347146482
13.728197892086802 15.877786399394337 3.936622762196724
13.839346354225455 15.619408558720142 3.9057246693579697
14.077880598371946 15.204617915017108 3.8696284594060733
14.19729625649549 14.99243505780272 3.8514989579095675
14.3316048137484 14.821196195657182 3.845230635776614
19.231242999267224 6.353139010247875 3.767058390129574
19.338248408361462 6.092529856787547 3.771362715456218
19.584320087621734 5.716114625289319 3.803417696772169
19.670972879641845 5.42955250751275 3.8024342688250736
19.820731013947956 5.411063511778271 3.84071946713946
19.906773695121487 5.125024860002605 3.841071327154111
20.074122409177768 4.771693362516512 3.859073576720021
20.216939274051757 4.504239527095499 3.8782079847433892
20.449181525288893 4.1798307657228975 3.918805772367872
20.66391873367072 3.8087226468704185 3.95314690252927
20.74018459022259 3.589563433299747 3.9607022970091097
21.033129077610862 3.1675854434520505 4.0166495959569595
21.136557731525315 2.885704865064447 4.0301045538358995
21.2251453228534 2.8509426520141408 4.052489014106889
21.310399360348462 2.6209518319442875 4.064772732051683
21.55378956272465 2.212653340882216 4.113064240445633
10.676006636537481 21.11325910024304 4.604386887147305
10.693369995813223 20.98475047131729 4.575622481350301
10.923764653776557 20.57226115412043 4.509612035005654
11.148117790732814 20.262944377648125 4.468993209943479
11.235920242912009 20.081666261814252 4.439243328779156
11.43573741538623 19.77853280906394 4.3983458499032775
