# .PCD v0.7 - Point Cloud Data file format
VERSION 0.7
FIELDS x y z
SIZE 4 4 4
TYPE F F F
COUNT 1 1 1
WIDTH 321
HEIGHT 1
VIEWPOINT 0 0 0 2.98023e-07 1 0 -0
POINTS 321
DATA ascii
20.293303887516668 22.540475557636917 -1.7605858872574278
19.957344387690206 22.634235553328125 -1.7532488378411677
19.645430341930737 22.666296561745103 -1.7424624602038294
19.342259582514128 22.760932528080318 -1.7374281547347064
18.9514544696412 22.896917368113307 -1.732595161332128
18.954846708252706 22.855474277819457 -1.7293889112251701
18.618042368364637 22.959333288913616 -1.724815382290358
18.267551858393364 23.05857327122837 -1.7197578560429179
17.964588574351477 23.111336925174385 -1.7132105427910442
17.5763433041499 23.221072571066017 -1.7088177700117009
17.257203065357455 23.299786471109503 -1.7048130884141228
16.843247054928955 23.43316238978356 -1.7029984400239937
16.58206931388369 23.49494579853188 -1.7003027297986204
16.210018498599943 23.644799471212472 -1.702508102495436
15.840725865452768 23.825344833009314 -1.7081554237294854
15.554807393087959 23.817345657497082 -1.7000687999402566
15.147182714370498 24.01415096063468 -1.707558822331007
14.85268747856292 24.170325175644308 -1.714813781057698
14.852156427563035 24.14296356947667 -1.7123554894044526
14.524008837911587 24.234943595413778 -1.7137255383970778
14.213866190054155 24.315029897087726 -1.7147372739014726
14.09555637322324 24.206065431806895 -1.7025934178887585
13.807245385995412 24.3238843828099 -1.708177710910968
13.42701218375425 24.473953589978315 -1.715614242578189
13.14756636881566 24.533890969406997 -1.716996199728762
12.740327407137652 24.64260979132842 -1.721613192546362
12.429739284761185 24.710043860621262 -1.7242489270000858
12.046408327124404 24.831220721166037 -1.7318044218891644
11.778575165962671 24.887197101028416 -1.7347424062420638
11.41826765078417 25.006035787784707 -1.7435396467351598
11.123623981917067 25.135725184094863 -1.7542263996999479
20.37668803079318 22.61832223255397 -0.8085125521050509
20.281820312251373 22.594370799344677 -0.8050558587395433
19.95598452401503 22.695313603809797 -0.8023182159369082
19.63300764783174 22.779761395052525 -0.7990783192087141
19.335764246105043 22.869895783428905 -0.7970780244212463
18.91244880390226 22.988239301678327 -0.7941468331989381
18.6422829809637 23.066318423564642 -0.7927383498896807
18.24004294130792 23.185081422010636 -0.7912142469541492
17.920821925068363 23.27340613151389 -0.7900304349285472
17.551156122247054 23.384165271933973 -0.7896193896204886
17.228252452587544 23.474748026511236 -0.7892159258967508
16.8821063815324 23.567908670355298 -0.7890660462862189
16.53556368231501 23.673149580400445 -0.7899013032255398
16.238224246448098 23.75705498726057 -0.7906452598048586
15.859215842317077 23.86584026266116 -0.7921218526142617
15.515500026849871 23.95300250428896 -0.7932268589902811
15.183986169326591 24.077461016408904 -0.7970457756082441
14.798781873513644 24.22008821371542 -0.8017935742716467
14.517740172303071 24.30128349021369 -0.8043633892527098
14.148676449581043 24.3697182619556 -0.8058623957732638
13.838871159783114 24.43334545282536 -0.8078645948484726
13.430000633498679 24.55496964894913 -0.8132337708835036
13.11403555129995 24.64428115409688 -0.8175069301825257
12.764390001577333 24.750104893396532 -0.8231506050542134
12.427390210531968 24.84978400507692 -0.8287700232293345
12.426583229707987 24.83144996986169 -0.82766196875576
12.100606112238122 24.938126144145375 -0.8342111812218027
11.706664510307576 25.064546002139473 -0.8424157367148974
11.440061877673603 25.136962677716056 -0.8475234292536875
11.091713697183474 25.242395643649072 -0.8552335545459087
20.404336033112763 22.6465043579464 0.14899811185701295
20.309514798230744 22.652705933928292 0.1492751697032657
20.309492410225904 22.634331078639143 0.1496416836184573
19.981523342495226 22.742604476266997 0.14871196718295643
19.588609263629674 22.85573151771984 0.1477090550413067
19.320202487631192 22.925875677037517 0.14698608186335316
18.896201187700264 23.047674288229633 0.14534319640242943
18.594523656853678 23.13713816771771 0.14391303148618018
18.227487695892837 23.246127847224585 0.1418865773141208
17.908807719938046 23.340128264735007 0.13997250889051427
17.90603140608501 23.32230931148991 0.14037227938522567
17.579434689358727 23.42220815297277 0.13806817424742768
17.220422447953155 23.529036152082114 0.1353956236681657
16.9032875478626 23.6132816354693 0.13302783085132408
16.493920052741696 23.732355446419483 0.1294323476453808
16.192029260366073 23.82247162960924 0.1265128910145883
15.832521534024693 23.920505992998724 0.1229791348879109
15.507423400923809 24.025878910738953 0.11917987300706434
15.505394545236165 24.00647286201369 0.11965087402773045
15.166396123459137 24.109917350837904 0.11555138715474844
14.817491732463345 24.21540255289583 0.11116339824603794
14.499923627087604 24.301997509227345 0.10714266801211936
14.089251624044792 24.418020546559454 0.10153157478116082
13.822623596088341 24.48786171324954 0.09784345154788532
13.413097409756425 24.610343991970833 0.09145588387995907
13.103040729089965 24.69813161335896 0.08654432754094732
12.782530977419281 24.78937157989966 0.08117691528370441
12.415786118865398 24.902339503557236 0.07459442876253497
12.094349496571525 24.98344241794027 0.06902048137367789
11.693397813935764 25.106568332410518 0.06119065882285535
11.42201952367548 25.181630256668665 0.05591929255698702
11.100554890288084 25.275245604458863 0.04932593541247532
-0.40204231298431203 28.59297070197367 0.6824020904266747
-0.5685127635402898 28.618280415836228 0.6777369883926609
20.430570187702887 22.6766156494273 1.1079751380018175
20.2963775109139 22.6995337991179 1.106052016862247
19.97177759914305 22.783081055740887 1.1015982289133661
19.573263474082925 22.898785352238445 1.0961569884519524
19.29336071162486 22.969370780042695 1.09218925884617
18.880215567773366 23.091535481158612 1.0863820928189214
18.58238647283962 23.173753911496664 1.0820891722219468
18.259860832507545 23.2694178779435 1.077414016593294
17.853050169578697 23.384940047056926 1.071397339110425
17.57201839563766 23.466876347337983 1.0671789952614734
17.20586737904668 23.568287247911048 1.0615758414823693
16.890149390477074 23.659035984895812 1.056694972698452
16.472644542986096 23.781421092629643 1.0501448088037106
16.180722932433 23.85778941735297 1.0454378405991116
15.839096546604008 23.95925079714575 1.0399243411505403
15.452425841463057 24.07747369403538 1.0336300543109629
15.180313876403993 24.14471430637117 1.0290086187530831
14.801907839839505 24.25254843743982 1.0226136465595022
14.487171805528472 24.345732833671512 1.0172369118511282
14.071381031785933 24.46970853174806 1.0100234170740618
13.779691310303708 24.552693620426666 1.0048747890004006
13.430454800239563 24.6492377582336 0.9985902405298634
13.04861787136624 24.765402977250634 0.9917074485851822
12.78943220284545 24.825193469099958 0.9868379147526924
12.372357111256512 24.943598431285025 0.979063273405571
12.055693171333823 25.03071196346673 0.9730527049543362
11.678985792416412 25.14324299928512 0.9658579119440669
11.40650244201927 25.21622419637188 0.9605505996482115
11.02031670856337 25.330114242538063 0.9529782173829723
10.678984228741665 25.428243419254773 0.94619827009053
10.381830827116593 25.509810303414127 0.9401871825902155
9.968343051610082 25.632260489158927 0.9317858223870134
9.68826217055474 25.707929367007615 0.9259754602704249
9.310875712501701 25.818956170025857 0.9181119291773415
8.967914776161177 25.90994352455084 0.9108262933734428
8.812391832573327 25.965372732682482 0.9075746649576939
20.437650290606246 22.687945726396947 2.0694228893377744
20.252281379531 22.744693791659873 2.064905781323182
19.934793783368185 22.828079245451242 2.0566996659102057
19.55892880668306 22.93910579006003 2.047530220208611
19.248428433001944 23.012436725414865 2.039318836671978
18.88171866728694 23.127250019205857 2.0307817019559358
18.55869023604241 23.21822971013792 2.02293182457261
18.261620626091158 23.306736828504153 2.0159726121938726
17.839833390219006 23.42256858852764 2.0058029852012345
17.568651538596395 23.50129682317599 1.9994951839299806
17.198759024779314 23.60585245340278 1.9908603581972306
16.84468127135076 23.70217341542792 1.9825309612685025
16.483852651356003 23.81338397600823 1.9746488560918105
16.159364183963056 23.90249128017083 1.9671960743862358
15.848004910351147 23.98868285631223 1.9601583726914722
15.437370605689047 24.113664463558834 1.9514040055977784
15.166306736461479 24.185295490837152 1.9452729842745913
14.760941551811555 24.298118991712197 1.9364181666072469
14.44304228983593 24.388607232196087 1.929632146920195
14.095163774534875 24.493843588181434 1.9225464000602945
13.75613009286624 24.59579459143553 1.9156810488968075
13.44672198294294 24.682710190075287 1.9092632627089519
13.037248567585006 24.801255978780166 1.9009998668566164
12.768334757815069 24.867393180221903 1.8951818402217144
12.344756945591548 24.986783326498465 1.8867213152173465
12.042192103749088 25.071149147013095 1.8807172979969793
11.683392975318306 25.17179928054196 1.8737195225107381
11.355374858057848 25.278397585322118 1.8679704934097525
11.355786986311573 25.260826467757497 1.8672821087597684
11.017894209608759 25.361567587740105 1.8610997476908226
10.668783913053854 25.466875378478594 1.854826210950483
10.352090638393367 25.555683459927014 1.8489560155103608
9.942275509320465 25.676007114070824 1.8416792452095594
9.67582342398389 25.744874804246393 1.8366357964216298
9.2810468060555 25.857287638873704 1.8296815962313837
8.953660075348182 25.94312817628899 1.8236904889270673
8.643099633989774 26.04125102536977 1.8187647852838593
8.266826430750285 26.160458731484674 1.8128857883484952
7.942650081493094 26.242474771499598 1.8070761174841985
7.543095184156067 26.35042556099268 1.80028920231022
7.272281796528645 26.425479780133916 1.7958263152379974
6.861793301577111 26.54841333813637 1.7895372477381573
6.552193970242088 26.62923969245022 1.7843784190145129
6.229697362381608 26.7241059320537 1.779523471347454
5.862499326748757 26.836077516754752 1.7742216279808098
5.552647201070941 26.910354487187092 1.769014986827352
5.176909618942699 27.02831763551509 1.7639024973366526
4.860705131672239 27.10985460485743 1.7589562353081334
4.44793031026888 27.231565486089945 1.7532227614021556
4.149917359733987 27.30792114240153 1.7486749816971459
3.809152501686202 27.408676202024743 1.7441045696633424
3.421865591864254 27.520636578785734 1.7388773574345853
3.1611320174058735 27.58822243589041 1.7351086815032468
2.772142012098622 27.703494199632225 1.7301332278714894
2.428642890848449 27.801437892472077 1.7256635200498125
2.050752086658733 27.90736324061158 1.7207585777206882
1.7792244320503383 27.9737380189954 1.7168826318537183
1.3995047984634876 28.092984924226073 1.7126193499017934
1.0482237009839417 28.196413933002418 1.7084568991912428
0.758210130576328 28.273770468954893 1.7047605123295981
0.3406430762220447 28.390941717542983 1.6997406656975609
0.17829969044496963 28.436773756124307 1.6978272762038074
0.02005891283104777 28.483652619786614 1.6960673496731593
-0.3185151642090114 28.581024723256615 1.6922291524603303
-0.6609178381856076 28.66491296492793 1.6878147606865983
-1.0118583779620982 28.775729237049877 1.6843629894210652
-1.3500681522076938 28.869559595974174 1.6805619607843512
-1.5776303665082523 28.926359010737144 1.677791547890863
20.300535848358766 22.87640691762977 3.038929089578446
19.876755430624897 23.088630910808995 3.0295840217936316
19.65640460476497 23.07886151810272 3.0168660361335897
19.25416664671322 23.196145116629296 3.0028706038336397
18.97900657937394 23.20840816987356 2.988906029987911
18.51372607801431 23.403107608227355 2.977355044408818
18.27632081918371 23.40490195560318 2.9649767956505535
17.861019868679527 23.578307375059065 2.9552465241713044
17.578598804215073 23.725196863367696 2.950816242853562
17.54856815721911 23.57219149061518 2.9387203435803504
17.18379521521594 23.76314936861902 2.9334016527796463
16.807501597666544 23.922812786134013 2.925605057656695
16.835064696641737 23.728644272929735 2.913434984816985
16.560103847298627 23.913984556402553 2.912714050050087
16.125320225948585 24.08544986277194 2.9034310162743067
15.801623173939838 24.10850082720189 2.8893918002454044
15.484621940822706 24.253074703824364 2.884498891138383
15.125991890380607 24.430119767711354 2.8801686426014723
15.141058072199371 24.31512043447651 2.872675151103181
14.774403922701506 24.443593194720627 2.86483508524795
14.450519441408385 24.56271712937279 2.8585046242407843
14.09133381080468 24.56633602636104 2.8425659961815803
13.74492493139104 24.641138388679973 2.8325107536360092
13.420855847851449 24.72800480600472 2.8245826184061444
13.022467365120875 24.842562799654253 2.8156992741155973
12.742618275899577 24.91508399720859 2.8090737443667684
12.329342623149103 25.03645167447266 2.8006738152482873
12.032078519543969 25.11955129178311 2.7945212423309425
11.708717694428913 25.21225647040104 2.788269942052775
11.340222935255738 25.324358843977343 2.781838298229197
11.031668930711657 25.400502085352787 2.775418346106052
10.65487828666594 25.511017062286538 2.7691080543351667
10.338780286581375 25.599415568972056 2.7637432196248723
9.921486104214491 25.71850141402384 2.757192654136682
9.631025402290163 25.79864383775403 2.7526136360192823
9.280796814205278 25.89898161939484 2.747668087958033
8.901212540766835 26.01395953311647 2.7430141397757533
8.64007422316583 26.078550856407613 2.738947295193787
8.25125027078689 26.193186992110032 2.734492540264671
7.908236218592 26.290675427528086 2.7305697044037873
7.518954200754076 26.404952744580914 2.726708035515634
7.25837888566376 26.46925724035906 2.723346841300881
6.871405852850216 26.5859431390863 2.7202762975386547
6.529262920750355 26.68644519264315 2.717561854537535
6.206986991527197 26.775335589571682 2.7148390298191485
5.819775275837511 26.883898839740294 2.7119337479330623
5.50488175277072 26.969834377179755 2.7096391848079264
5.126253116519546 27.081957121153966 2.7078102234875123
4.818791048123503 27.159941290447744 2.7055128357371956
4.449559092162692 27.27095926166913 2.704357789793782
4.126567430574963 27.36216302246913 2.7030648501303842
3.8286821971821907 27.44708898757878 2.702161085134202
3.407660074019048 27.567299244381285 2.701136902476982
3.1356948648469842 27.640431069369615 2.7003267772502895
2.736956900967031 27.755044896350366 2.699929669980669
2.412567803586447 27.845393058276592 2.6995931759937495
2.049754036903305 27.950692924491456 2.699796231582034
1.7253367504988755 28.042155446222147 2.699924512556945
1.414404352605903 28.131240127567363 2.7003668881428737
1.0040068918903717 28.24982820919664 2.7012472380114203
0.7317070839210333 28.321539189036464 2.7014794312144064
0.42648362386330785 28.413130338688617 2.7027116945579723
0.25046943722555337 28.459215937601922 2.7029953567008005
0.00884981210917779 28.527068285556716 2.703808660121025
-0.3401913037018698 28.6287517149944 2.7054466221877864
-0.6783316627564027 28.727489497747342 2.7071885308948804
-0.6793469340302032 28.71102574031233 2.7059422123153203
-1.005953333959149 28.81211830380027 2.7082686728416916
-1.3662193925359283 28.911454383630215 2.7100750758034104
-1.5895430863535092 28.977321665441828 2.7116230728516104
13.697308562904105 24.869292986791503 5.655527805647302
13.340467624216714 25.026453568818823 5.654082495028552
13.021139458344987 25.031035184141903 5.630005291826397
12.658355607279297 25.212455684231834 5.634010774733304
12.37619345250632 25.1978621648604 5.610513302248206
11.980847042984202 25.379066775694117 5.613841262453871
11.620332169805295 25.581356382537297 5.62425939370845
11.635559363437071 25.384978431309648 5.590673179071741
11.316031921190437 25.544207411456537 5.597168393180275
10.974088069475858 25.715608224872735 5.604989187037281
10.957101617176317 25.55504482624523 5.575365638132566
10.63628669436135 25.70547782303378 5.5817086842220585
10.284451245421227 25.874534636758582 5.590103836316
9.987234835482791 25.871391392031658 5.571798691099899
9.678970685908213 26.009023617379498 5.578562523122023
8.838473458144781 26.220240147609907 5.570907777283379
8.543181328008147 26.39435328503782 5.58721213613571
8.553761047191816 26.24298178400359 5.560426805226998
8.239798421218554 26.370315292525426 5.568058027565699
7.87774387680532 26.523741660378924 5.578726383694864
7.589663346106895 26.562616769859797 5.572820440355896
7.168877877723346 26.72498766457895 5.584222464006979
6.900410589955344 26.730711459562414 5.574285587936511
6.487868301269476 26.89120754417378 5.587517152169685
6.159948467398687 27.063987793440297 5.606891060695123
6.149288055196151 26.897970619996354 5.5763172354134625
5.818640179536267 27.09236172945616 5.600341482281747
5.469484012996251 27.239133650352592 5.615684066563804
5.215616088113924 27.240992715885724 5.608247051283068
4.716466290524551 27.4093988525356 5.624732536633439
4.445842694422394 27.41408971677524 5.618460168624979
4.075341340319245 27.589398833106756 5.641413541964969
3.7966381434297567 27.724382735580026 5.65964384322186
3.795680223907022 27.585994064134617 5.634440546126964
3.369664867012486 27.772780588699952 5.659780508219109
3.0288674498925756 27.93701922181569 5.683380509979994
2.7418901560088758 27.95092570420739 5.6811534752526285
2.3231068230940273 28.102527713702678 5.702621834100303
2.069842495275085 28.103786849472964 5.699577519100116
1.689778956300524 28.24284972506352 5.720677621107245
1.548591055323762 28.354801082846215 5.739565024185103
1.3016348113013776 28.43151090865055 5.751301954338564
1.3376138491635654 28.338306940197004 5.734716126236465
1.0288825972669184 28.431667592015955 5.749435340724989
0.6500231256035631 28.613883339432274 5.780232592627796
0.29193822106907596 28.637768859368165 5.783300242733149
-0.05479631190673118 28.78955808276975 5.810045584140676
-0.3352235676594466 28.827191345435775 5.816737750262409
-0.748625080456172 28.954215258082456 5.84025150168042
-1.087358951897559 29.113896211875055 5.869993804838995
-1.0839666851665593 28.96431625958512 5.843197340763901
-1.1792208507813182 29.077939536250373 5.863975924294221
