# .PCD v0.7 - Point Cloud Data file format
VERSION 0.7
FIELDS x y z
SIZE 4 4 4
TYPE F F F
COUNT 1 1 1
WIDTH 402
HEIGHT 1
VIEWPOINT 0 0 0 2.98023e-07 1 0 -0
POINTS 402
DATA ascii
1.1253405235227292 -22.695010712112797 -3.297130058805667
0.8451931030389424 -22.72632953831894 -3.3029108175205733
0.4832168548948217 -22.757860723267832 -3.3101940506951277
0.14114968439616504 -22.797728765053037 -3.317492178741903
-0.17986886764830845 -22.734998007925952 -3.3211679204474818
1.119652715228888 -22.639683968678483 -2.549233809290222
0.8271753819455019 -22.66445404933771 -2.5556514751039465
0.47565465011389296 -22.690019634596435 -2.563258380625917
0.08684920701691068 -22.73299982356592 -2.5715505482477052
-0.22999736198557486 -22.746067994415586 -2.5782423045969645
-0.5836679472215007 -22.740573040576674 -2.5856792170562155
-0.9371672400551525 -22.75006659522325 -2.592956092351335
-1.2888618764721502 -22.76588797813101 -2.6001052394834803
-1.6248607899966065 -22.784968565472756 -2.6068080645229257
-2.0531803111238256 -22.82214740871763 -2.615213427661273
-2.320810051312235 -22.831275354513956 -2.6204042786968467
-2.750721483021919 -22.85353152570553 -2.6286266721394727
-3.0017827385205407 -22.87887652377659 -2.633316335597994
-3.4076311897363207 -22.923934231187886 -2.6408056855403124
-3.76216002013423 -22.95363900680419 -2.6472481420742935
-4.111521871923828 -23.005873852576144 -2.6534572852718616
-4.46278460857239 -23.04575279801183 -2.6596298531493594
-4.81594136174688 -23.074422960276866 -2.6657574444004695
-5.159099983615347 -23.0883962667499 -2.671650998924698
-5.512610366402399 -23.126713356044558 -2.6775764608464323
-5.873200379703002 -23.153468297059636 -2.6835554975458495
-6.252126068465624 -23.19597893110758 -2.6896923937013817
-6.579150648471648 -23.206944654906916 -2.694965469213633
-6.93211676110467 -23.243016609455672 -2.700506256401894
-7.246725662165027 -23.252494698083453 -2.705428318718723
-7.650903702899504 -23.3123571465345 -2.7115406292279665
-7.9890035212078105 -23.324605280717137 -2.716651394947313
-7.9876766999869835 -23.351353967069723 -2.7165873684264805
-8.294393999709602 -23.36057972620469 -2.7211401304604808
1.1565151847395532 -22.64296278862654 -1.8016131559184936
0.8127592122138738 -22.632262668982264 -1.811402416009654
0.8136930005971252 -22.65250691826589 -1.8106348422687193
0.4594496964200885 -22.663342965799416 -1.8195575207918973
0.10802523101918604 -22.673983191234168 -1.8281824514018903
0.10634444715597535 -22.69432288648363 -1.8274762329837486
-0.24571022640433204 -22.718088058109128 -1.835243961863897
-0.6011392174874102 -22.74672609800556 -1.8426926533172332
-0.9656500394963912 -22.776367478855324 -1.8499112963959248
-1.3039478873117285 -22.811207851994293 -1.856117493061017
-1.6082964892133471 -22.831004835820632 -1.8618292768235907
-2.009498850462386 -22.87055860798518 -1.8685657439719598
-2.4157186972604245 -22.871523322094145 -1.8763911998248923
-2.7435617069597407 -22.940954451803055 -1.8799003703319404
-3.047973497076251 -22.881740866073653 -1.8874672917515243
-3.423362524193549 -22.965179459756815 -1.8907412178139062
-3.7391192522261854 -22.957696997292672 -1.8960692893493205
-3.974595733733798 -23.029858500906276 -1.8970571616984038
-4.480781092984193 -23.025447585074097 -1.904558009535858
-4.896287026813308 -23.086346283351403 -1.907873557810994
-5.119793406441522 -23.093446297906798 -1.9104649927982142
-5.5697969682256465 -23.16236783863784 -1.9132814103488232
-5.889069251535266 -23.189623058827074 -1.9158214139191954
-6.240687426922145 -23.220902407700628 -1.9182605518937315
-6.556514642633915 -23.234743390748445 -1.9207864870592246
-6.946114598920723 -23.278032838505954 -1.9225817646780867
-7.293901503894495 -23.301954358398152 -1.92450629993905
-7.651124934791721 -23.33770546237421 -1.9257433059212297
-8.003679600058623 -23.353053823396678 -1.9274747268597614
-8.004249100678907 -23.374117789387157 -1.926733719683389
-8.335463829026992 -23.39224262821091 -1.9279287425609073
-8.709631755183562 -23.427464771773803 -1.9285645603136305
-9.044782621025476 -23.45253172684153 -1.9290618295563813
-9.415175048438277 -23.488945615997483 -1.9291121587889617
-9.719964420914062 -23.506983795147978 -1.9293225714576012
-10.146954553305584 -23.579875041376628 -1.9277444886254713
1.1176662154666652 -22.584634297368684 -1.0581449754210523
0.794918909600784 -22.589454227926232 -1.068294123481179
0.44335539600166607 -22.631898487906998 -1.0761114332926054
0.0915750737330514 -22.658612241578066 -1.0846753658208983
-0.27972382748118796 -22.693618508650626 -1.092530456956808
-0.6143215066759957 -22.708720647117662 -1.10042348191944
-0.6146372078072639 -22.727061295666882 -1.0991115531867188
-0.9672440285999018 -22.74027752404078 -1.1069897984378554
-1.3209969908844612 -22.77500906211723 -1.1129601203850723
-1.6866106190596633 -22.805754929726398 -1.1188243199182297
-2.0252113388779494 -22.849007371151142 -1.1228132048787265
-2.351546810193753 -22.86348198089321 -1.1280833411907585
-2.730561625080239 -22.90653225056231 -1.1318507722968716
-3.092374576687631 -22.935250290382715 -1.135726212898934
-3.464434564334011 -22.964947546371825 -1.139202050860086
-3.7896107556978706 -22.98222909794285 -1.1423618515111706
-4.143832929499161 -22.992171786823633 -1.1459964844043646
-4.455839634914065 -23.03115541107275 -1.1465967140513227
-4.900453785428372 -23.08580591108047 -1.1468866514737674
-5.176770596608909 -23.100196847636653 -1.1480741158076877
-5.551746749869979 -23.13230659665355 -1.1483006837741172
-5.876316783486676 -23.14980335635995 -1.1488332136637416
-6.2934420864947604 -23.194769686003333 -1.1472726862191096
-6.609699119428105 -23.217270670720627 -1.1465493502046833
-6.963239438623891 -23.25239809326076 -1.1445125908697966
-7.315058996525916 -23.264262986051556 -1.1437423136868463
-7.668515875475474 -23.29690539868087 -1.1409880466457576
-7.982278295558992 -23.309205508913706 -1.1394177093079119
-8.016708273069177 -23.373519615484998 -1.1348695688939419
-8.373650234972969 -23.37149176273899 -1.1336295814892203
-8.727730688178696 -23.376424472596387 -1.1315872797414315
-8.727727321030331 -23.407472819472265 -1.1294621597571883
-8.858080483872612 -23.393431786810417 -1.1296616032161568
-9.101986955143976 -23.4236675415912 -1.1259872390976031
-9.427322653439692 -23.41527288667573 -1.1241908772491742
-9.434113151836478 -23.45946829818235 -1.1211479969206801
-9.79156007897425 -23.48467193592879 -1.116347133498377
-10.138051015645653 -23.53169430922082 -1.109878196354021
-10.406121379648752 -23.545595249371704 -1.1060808501797577
1.1277261457832788 -22.52743296785583 -0.31321365520550604
0.7757710042405503 -22.547649531620827 -0.32437111957974096
0.423292830688315 -22.5797574821924 -0.33348623213718565
0.0735840502617604 -22.615170626060227 -0.3415287603204109
-0.30002234263258964 -22.649841227077246 -0.34952416373439954
-0.6302840513872561 -22.66557514800092 -0.35766517512757545
-0.9839864344535358 -22.701809352363508 -0.3634383403473409
-1.3350104654572745 -22.72135614286507 -0.3703949201266652
-1.6621421807492927 -22.74639441520938 -0.3753146349835035
-2.0419278256266944 -22.770865957553426 -0.3809009516814763
-2.0414631219105814 -22.794773847883864 -0.3783376043202944
-2.3951790020342476 -22.808157916632734 -0.38367409465626157
-2.7497241724360975 -22.850639855539026 -0.3853595507145977
-3.113045801373426 -22.88211750625276 -0.3874199507023719
-3.453290750986061 -22.914721295872905 -0.3884905400271128
-3.807567507773401 -22.917497523745872 -0.39211135948274833
-4.157973769262489 -22.8589563175831 -0.4016894625861016
-4.172051512854409 -22.9094874279269 -0.396431997296371
-4.474841270170973 -22.976567627933306 -0.39141245510924527
-4.9007156647303525 -23.022923791050307 -0.38878640984088575
-5.2168105099623165 -23.048817402694684 -0.3870469772891476
-5.56951562462311 -23.0763827856002 -0.3846620912543073
-5.8811944709860215 -23.096346441376443 -0.38241728720496493
-6.3093552331087865 -23.139634655837973 -0.3768595743049463
-6.604014433753712 -23.157649578831375 -0.3737213856882087
-6.981202965144974 -23.194409194588136 -0.36759546552237365
-7.333739188599879 -23.209844334361108 -0.3632209739698826
-7.686577158724719 -23.23934009295906 -0.35672763034712407
-8.006181915190888 -23.265484511943903 -0.3504233927123672
-8.418701230394596 -23.31791136842485 -0.3395187627071934
-8.74452381267296 -23.326966317656833 -0.3337378218766691
-9.068994583033518 -23.358565898634385 -0.32510834597608484
-9.417277970429591 -23.378417042876443 -0.31685554830935914
-9.830294938204279 -23.433725873316494 -0.3029678302820775
-10.154567795380732 -23.4500062210095 -0.29438722569354114
-10.156757608127517 -23.47690416109554 -0.2916426367057454
-10.50916558974684 -23.48507080145767 -0.28262798523830135
-10.860483220761662 -23.485064765365973 -0.27398654095214336
-10.868893950528001 -23.526392948323085 -0.26969245192642877
-11.201392666575526 -23.551685790687685 -0.2584438404117715
-11.603223597008473 -23.590377407324688 -0.24355591645917807
-11.921292995060742 -23.607148402396593 -0.23254944125287702
-12.258610131801028 -23.6581768689928 -0.21733491553129403
1.3100792464260422 -22.474060706121488 0.44190915377086926
1.1599645045725655 -22.50110016578437 0.4389895514669524
0.7618529187883887 -22.512653071494814 0.4234076275787988
0.36901996137368354 -22.546136827783457 0.4123555258520488
0.0564430610564175 -22.56355160018365 0.4030620727699885
-0.29541407434004463 -22.59162570909908 0.3947276859724913
-0.6120679944263616 -22.6143469139473 0.38759070017914476
-1.0368814468520868 -22.657757937374075 0.38116886345865675
-1.3539849886103705 -22.680715686502783 0.3757743244063816
-1.706218146007328 -22.71628187760977 0.372300446753004
-2.0567499573969976 -22.744645701929635 0.3685665521054231
-2.4122498133202854 -22.77219597237671 0.3657724761893215
-2.7640895008333644 -22.792264810155853 0.3626407814878432
-3.1438086600408304 -22.82669527210254 0.36238858443737776
-3.4696409166740194 -22.84452758715627 0.3611275582090432
-3.4704268358048718 -22.86243856361331 0.36366852299333985
-3.809044732389995 -22.864007555473478 0.36099332152441477
-4.139804839803785 -22.819075298227027 0.3523812314037489
-4.167187453360726 -22.893284285376303 0.36278461655281014
-4.505836565185255 -22.937890084075143 0.36792647140639057
-4.881168176422225 -22.985218441000246 0.3740837741665479
-5.233823667642964 -22.996625713935018 0.37626212292226624
-5.58635456076169 -23.031096422117805 0.3823977666978031
-5.93874153466542 -23.057933993602244 0.38844668075574074
-6.328295741959277 -23.09371066190458 0.39687268587084024
-6.645667217724481 -23.115730822838373 0.4035754086986225
-6.961637734725827 -23.133715569537678 0.4102877823340383
-7.049327171099714 -23.15124402475624 0.4140237559811082
-7.310000105353291 -23.160458151176368 0.4194866414086156
-7.704228382447141 -23.19759373014352 0.4317557040980722
-8.058200567997726 -23.22569278570548 0.4428967922100684
-8.437481704628734 -23.264788097634852 0.4569475778580334
-8.778523292006287 -23.28391733216476 0.46812465819906457
-9.070465020413646 -23.311377836475856 0.4798189696590618
-9.467756010292433 -23.34803256400677 0.496336023635378
-9.869854713661226 -23.380696506566554 0.5134982410966646
-10.175181325289092 -23.39578622618704 0.5257548763441666
-10.523633009405042 -23.42979413205636 0.5427609051110611
-10.845826704591396 -23.448644816683586 0.5572799971756721
-11.234865547592655 -23.487119128412353 0.577805588639476
-11.58550602003865 -23.508618751876885 0.5951017970549448
-11.927229740009395 -23.54671165687473 0.6149612179979558
-12.260804632304048 -23.613438824745167 0.6385640750829085
1.3266703772285444 -22.453530922348893 1.2005683283461885
1.0981097688561183 -22.46811074497721 1.191516213596485
0.740109836365086 -22.47744093415009 1.175888622167971
0.3927879325053141 -22.512811980646724 1.1664572428205489
0.04208117937355427 -22.55054211000689 1.1584534310158183
-0.3495143076542475 -22.58840481327266 1.1501273332698094
-0.6644885376187526 -22.608669558989348 1.1425996669551068
-1.0172423325144357 -22.636360316081344 1.1362352063293044
-1.3492276657869295 -22.654161885635656 1.1297161182455833
-1.733648677098981 -22.68535633960669 1.125479233380728
-2.0451559834229736 -22.702114975708234 1.1213743659496078
-2.427481627676779 -22.754286862607614 1.1233991661764797
-2.7804819759687636 -22.767501782396202 1.120012731028727
-3.133084318270823 -22.80948649404181 1.1231399852791357
-3.4851825202887463 -22.82672882706504 1.1226847210130617
-3.867182875832606 -22.85081680435749 1.1247269190771552
-4.133940511271847 -22.807811844286345 1.1160750099291707
-4.545092748414319 -22.916984261788578 1.1354852843892775
-4.899523503004128 -22.95508967692253 1.1431973213041804
-5.229501142513144 -22.981619314195136 1.1499772753042703
-5.604323547819391 -23.020700844918153 1.1601984082666856
-5.95661500425488 -23.034567248297606 1.1670447392140137
-6.30922834387559 -23.066256322215175 1.177886492805408
-6.634069780963854 -23.080995451481208 1.1864260554125554
-7.046733219958505 -23.124479618130504 1.2026456361153146
-7.31140640250115 -23.14154323191935 1.2120037809583364
-7.721869549862256 -23.181997398319417 1.229905726219398
-8.074431242550505 -23.196820177484938 1.242965915063679
-8.457919825356221 -23.24039582911966 1.2629133527194858
-8.771745706373467 -23.263032134744115 1.2778478881577096
-9.134346180626782 -23.305134212862225 1.2987611743752652
-9.486745683926666 -23.319526523522153 1.3154524044087919
-9.838703522862636 -23.349462047104144 1.3357111694413435
-10.07854537357646 -23.35672386793694 1.3477402014148492
1.326291846877032 -22.449501608119217 1.9702472669240239
1.081891475784193 -22.433417626442846 1.9528825697347072
0.772114901545208 -22.44337245798473 1.9383696727468527
0.340946381154966 -22.49296525924284 1.9272898688463167
0.024007262604874402 -22.51052129825925 1.9165181826999653
-0.32898881808618197 -22.541979090938053 1.9082771244371894
-0.6812882537041558 -22.556269345459988 1.8978538415836343
-1.0336270278325694 -22.595560195357592 1.8940667619355027
-1.3864342936846 -22.62702310117771 1.8899885925509397
-1.7392548649889346 -22.661231241543632 1.887919858426212
-2.091654969572833 -22.675754886842363 1.8828853072661644
-2.4446404609776717 -22.711066397528594 1.8837829525080574
-2.7964307295235598 -22.745446579859234 1.8857226574658545
-3.1744449742585545 -22.789072813075332 1.8909111497138413
-3.4989439358576613 -22.78727810013326 1.8879702601684452
-3.8492793701071797 -22.812334320323476 1.8921139090942338
-4.168228705952646 -22.803710728908563 1.8900481472867865
-4.585163457891449 -22.890236119455192 1.9101383643858663
-4.91463839717721 -22.910515138216965 1.9167749193706465
-4.914961349910699 -22.946338417741362 1.924408612199719
-5.267159409776468 -22.949086837192112 1.929028958714981
-5.621090793889669 -22.950879169224635 1.934446550231475
-5.615404439986573 -22.98106954252926 1.9407524559440912
-5.709717252355133 -22.966545482254638 1.9392851234928585
-10.030448283210806 -23.388754399953733 1.350881305890839
-10.19352813950773 -23.371734126032667 1.355622464677035
-10.572099161125777 -23.425851366444835 1.3829768600357548
-10.899279176291035 -23.43553316472057 1.4011432319966
-11.252810769928587 -23.469264647725556 1.4255318887381687
-11.6028572297584 -23.480950375460832 1.446813533331393
-12.000901943110033 -23.537088728830586 1.4791134875642653
-12.284946798436845 -23.625417830941274 1.5103190867416538
-5.534058239025278 -23.007079573114382 1.944973317156621
-5.6258372863155 -23.000970012465196 1.9451458031652713
-5.989980254577306 -23.00370245475288 1.9525679783602552
-6.331285870633165 -22.982934985818435 1.9555343760996662
-6.32710384025728 -23.05962713469429 1.9716016677737107
-6.679459915655085 -23.06464052133159 1.981717308746548
-7.054265111253998 -23.114878689461065 2.0029769032275313
-7.356152402040628 -23.10928932200162 2.0116452633724506
-7.773925411051339 -23.1637741467051 2.037788174610669
-8.056822824527677 -23.16925997267341 2.050047331190652
-8.459392221834095 -23.224104928937813 2.078291543029435
-8.764394170391093 -23.224871223600033 2.0923713875944303
-9.152297037252142 -23.263860458989026 2.11916775361749
-9.520994711259643 -23.281607569302494 2.1420039349966435
-9.855156439902546 -23.32303202121998 2.1687673645969454
-10.210707976011786 -23.351560552528685 2.195133326493834
-10.582753179612354 -23.381442016005362 2.2239061697493376
-10.887391847599762 -23.387845169089154 2.244633679143652
-11.277059860749123 -23.45170856547748 2.2833430760841518
-11.620161880539595 -23.429691716308305 2.3029077045621493
1.3127829908995405 -22.368101378999302 2.7314329510111683
1.0644799354232868 -22.34272303041804 2.709379558246259
1.064138278257699 -22.36771759105398 2.715586314990915
0.728180959649289 -22.37657241260386 2.6979722152476073
0.3569143893273088 -22.408592012875385 2.6853139810810367
0.005587364626689517 -22.433151521190783 2.6739623675249984
-0.34887893871509235 -22.476731503662084 2.668404635891993
-0.7001507625338041 -22.48975463910585 2.657260012285562
-1.0524509262990174 -22.5236208190958 2.6525717511225144
-1.4045343154772536 -22.54574801240377 2.6467650164913623
-1.7856784889322665 -22.593598217364324 2.6481632450454056
-2.1101845831870456 -22.612768035541347 2.6455019231692614
-2.4618644578551265 -22.646313436563293 2.6471879243462553
-2.779240868735524 -22.670172598304923 2.648555397327647
-3.16889343158746 -22.700715085269234 2.652227160309148
-3.5221150205739593 -22.71994296440443 2.6550212968672424
-3.8367122498547417 -22.73407054956124 2.6581324567959177
-4.210246908813335 -22.7645314287535 2.6667954000493097
-4.580665837944277 -22.8037076152384 2.6794102590654436
-4.90432701586976 -22.823791992443713 2.6881308058329028
-5.311371024254303 -22.880667973442538 2.708953575435322
-5.640154447215597 -22.888968256105986 2.7176224517898193
-5.98423149012441 -22.92825674774941 2.7359171003110054
-6.345478677853318 -22.93182962112049 2.7470423854070534
-6.698466711134884 -22.979692304998142 2.7705981281820096
-7.051772214260866 -22.99482267191505 2.7871444689589975
-7.394010837892792 -23.036847081387478 2.811535427366934
-7.758357275498059 -23.049647559248196 2.830843996840099
-7.7589038170280515 -23.07366441930806 2.8367033385292926
-8.110612089168264 -23.0861095113821 2.857022251464156
-8.453147975208735 -23.12029589839084 2.8831070283420495
-8.497689679945143 -23.109459030835467 2.882920625010679
-11.683259825699178 -23.48463819196704 2.3181522339550824
-11.972272191660444 -23.50193719982649 2.342606897570195
-12.333388730628212 -23.483611000749388 2.366158665318232
-12.677048286337286 -23.56031232507075 2.4077962793530343
-13.036837897261023 -23.538021810997915 2.4323977876359733
-13.401325882015346 -23.629196444799348 2.480158553896648
-13.792397849163251 -23.59682939415668 2.5075353405855845
-13.75297651663898 -23.67477360665711 2.5187716662335964
-14.13405324963999 -23.676959497595426 2.5528451032814443
-14.449182844225547 -23.688300856646066 2.5833914292638838
-14.841520742070308 -23.726962540468858 2.6271134307386763
-15.181061028122528 -23.77900468314231 2.668911638669414
-15.501808069142776 -23.76653378671956 2.6979262048295283
-8.4039330108994 -23.1443285354207 2.886233510779541
-8.475998118376776 -23.134216627113098 2.887694727992357
-8.832332121870238 -23.152430458028043 2.9123647184538717
-9.171569660848302 -23.192261058192244 2.942142685378551
-9.519933491967613 -23.20312572828104 2.9670280188170794
-9.877571325571402 -23.239355974751973 2.999579688360974
-10.235647244910908 -23.2608708089456 3.0301515692602603
-10.585827022525915 -23.28837971583885 3.062547366423643
-10.938184102670931 -23.322453524450538 3.0979544373258276
-11.284145918316252 -23.348981135911085 3.132097028771888
-11.645027200436697 -23.365673677372072 3.166450924504309
-12.008276410561702 -23.40025404307502 3.206184900543237
-12.317161298064203 -23.419995494126564 3.2387324782822375
-12.699731599456978 -23.45345645958638 3.282144548941779
-15.749748402349532 -23.838471654158703 2.735460850142368
-15.856136019865879 -23.812950931285908 2.7414929328553255
-16.236808124214992 -23.825528960396298 2.782540599719189
-16.625673105523298 -23.862197581287557 2.829467400127112
-16.89471296152028 -23.872528135396305 2.859887768751766
-17.277884754488053 -23.923393953544952 2.910058312430082
-17.619344563764322 -23.936902381423586 2.949933559278617
-17.976336070748776 -23.9688093685619 2.995301151884628
-18.334001924153522 -23.979475138067684 3.037798182174095
-18.68791261768247 -24.03145449854806 3.087503910591619
-19.01437646594864 -24.017202680978407 3.123340209008388
-19.238879765621547 -24.06584700197312 3.1581419782219387
-12.827351368581667 -23.487969142449536 3.302138928680055
-13.060447757596982 -23.4813136131145 3.323388501253204
-13.434163759113833 -23.51561752719338 3.3684452267375864
-13.767215069082397 -23.526891223940005 3.4052128459684656
-14.150244934051795 -23.56378397156957 3.453905378076449
-14.474310264324522 -23.584440249190422 3.493600423737594
-14.882404358022455 -23.62348103029329 3.5476057682844946
-15.181752993339114 -23.635004336492173 3.5842093036069302
-15.540559344947432 -23.672227110745123 3.6340809390239155
-15.891193433175193 -23.678775135204397 3.6771802686722435
-16.101235849513913 -23.702220710089865 3.707608410089863
-19.455452764211085 -24.08058729158229 3.1865093136798643
-19.745479921774955 -24.08866681890342 3.2228991660001
-20.15742728853849 -24.15652388747264 3.284605596336588
-20.488931497579845 -24.13575127723679 3.322303929140908
-20.842905822478805 -24.18971808429128 3.3756275476084197
-21.18373788476229 -24.18564447198043 3.41831717208063
-21.59107358528513 -24.23664277994332 3.4789851149820716
-21.90097143671302 -24.23940286395923 3.519810741061548
-22.234048304986732 -24.299310585339672 3.573141642381821
-16.357562814373434 -23.731454248064402 3.7452455004569076
-16.633795481865157 -23.727730275308037 3.7788608296523547
-16.95103346411639 -23.783107515081085 3.830607616871836
-17.303573784319163 -23.79897411808457 3.87919522644859
-17.306633939995386 -23.829156300574553 3.885790660086239
-17.628929430505305 -23.83055519401975 3.9283742424747627
-18.013544130610597 -23.840946164947482 3.981638548554427
-18.01484276932844 -23.869609169771675 3.987606548924635
-18.36177874239558 -23.878811448829506 4.036570795489237
-18.72389278631657 -23.916408430095995 4.093813068200627
-19.00855205673738 -23.93425081437828 4.137100483541626
-22.638542559834672 -24.306341773206842 3.6280557400089295
-22.92412316235811 -24.338271790405237 3.671451573577741
-23.21628600832124 -24.3098915003945 3.7066695777602803
-23.547137455246933 -24.376705222899794 3.762197825212855
-19.253055768688753 -23.957887691885308 4.17621058481543
-19.426980296707267 -23.980992191324546 4.205482924014217
-19.735728787076948 -23.98546895854269 4.250694999875855
-20.478702728266104 -24.036963620716254 4.369436143966618
-20.839794980903804 -24.076072575068974 4.43078110555848
-21.2301101758172 -24.10369518756388 4.495068510172269
-21.55278111614899 -24.13607945972003 4.550475654500446
-21.802292303569235 -24.138542493959264 4.5894499475821116
-22.0117637815938 -24.154102596655886 4.6249099174728325
-22.282653554598806 -24.1809851575144 4.672301094999514
-22.59667923590072 -24.188604891033656 4.723307765180446
-22.96537431746411 -24.222809307948356 4.788339934509962
-23.35869764184395 -24.25401237891822 4.857370577864564
-23.66641699406119 -24.280818049018084 4.912231058193539
-23.89203424887994 -24.279326229314062 4.948908825453725
