# .PCD v0.7 - Point Cloud Data file format
VERSION 0.7
FIELDS x y z
SIZE 4 4 4
TYPE F F F
COUNT 1 1 1
WIDTH 1327
HEIGHT 1
VIEWPOINT 0 0 0 1 0 0 0
POINTS 1327
DATA ascii
9.1128778 24.9666 -0.46391597
9.1500654 24.720102 -0.46010396
9.4057188 24.38839 -0.45626715
9.5410633 24.179514 -0.4537248
9.7791109 23.882227 -0.45046598
10.088346 23.520247 -0.44672453
10.219653 23.305063 -0.44418675
10.491669 22.980528 -0.44096103
10.686339 22.687916 -0.43775132
10.845598 22.450443 -0.43521088
11.165951 22.059708 -0.43157703
11.328564 21.808413 -0.42896271
11.366779 21.813011 -0.42934379
11.515072 21.516687 -0.42598262
11.726865 21.166485 -0.42237833
11.884401 20.926334 -0.42007008
12.1435 20.565453 -0.41688889
12.320291 20.306316 -0.41458496
12.340351 20.308765 -0.4148033
12.523556 20.053986 -0.41270268
12.820545 19.666107 -0.40978137
12.984251 19.428101 -0.40788278
13.216851 19.134016 -0.40592906
13.457358 18.814922 -0.40377778
13.62207 18.608992 -0.40255201
13.853737 18.366634 -0.40156749
17.454523 13.602057 -0.386262
17.719963 13.263689 -0.38636172
17.884567 13.031027 -0.38625428
18.136826 12.744501 -0.3869358
18.268181 12.470387 -0.38608387
9.0822277 24.70163 0.45939365
9.3319235 24.363949 0.45540407
9.4870749 24.1507 0.45291197
9.7605782 23.796501 0.44896016
9.9637613 23.537371 0.44614282
10.154827 23.276728 0.44328222
10.426064 22.920271 0.43952832
10.604086 22.656855 0.43664879
10.625854 22.662855 0.43690479
10.804543 22.408382 0.43423933
11.106622 22.020237 0.43049473
11.250787 21.817291 0.42847681
11.479245 21.529127 0.42588094
11.749089 21.182703 0.42281318
11.924844 20.93577 0.42055893
12.177773 20.60924 0.41785276
12.417714 20.299164 0.41536403
12.565645 20.096855 0.41372433
12.858865 19.722628 0.41097394
13.048109 19.456917 0.40892017
13.077659 19.460608 0.40926084
13.252007 19.201361 0.40724188
13.529172 18.841478 0.40488747
13.680891 18.606522 0.40312406
13.859797 18.403708 0.40214863
17.607912 13.525965 0.38756171
17.726114 13.31219 0.38695669
17.889793 13.076379 0.38679296
17.970863 13.058993 0.38775757
18.133467 12.780516 0.3872467
18.408098 12.441829 0.38782877
18.612923 12.180526 0.38827601
18.846792 11.884607 0.38892916
19.078474 11.561887 0.38939786
19.217844 11.349863 0.38958919
19.426636 10.982422 0.38953549
19.572586 10.699303 0.38935626
19.800539 10.378463 0.39023057
20.030869 10.081931 0.39143118
20.19245 9.8452663 0.39213121
20.487175 9.4544678 0.39385787
20.669212 9.2041426 0.39493701
20.695915 9.2059898 0.39537624
20.871197 8.9455614 0.39636979
21.175285 8.5659704 0.39871928
21.341112 8.3281717 0.39987141
21.544191 8.1033754 0.40178588
21.854195 7.707068 0.40449646
22.014315 7.4976945 0.40593958
22.268177 7.1547766 0.40827125
22.482603 6.8812485 0.41040659
22.649021 6.6471376 0.41202009
22.94717 6.2632689 0.41520414
23.121792 6.0026684 0.41697127
23.149899 6.0064731 0.41746277
23.342846 5.7469788 0.41962585
23.638081 5.3760514 0.42314506
9.0442677 24.676981 1.3774071
9.2759247 24.36552 1.3663523
9.4233046 24.162659 1.3592138
9.7249069 23.771572 1.346054
9.9495296 23.490818 1.336973
10.104935 23.277109 1.3299056
10.403272 22.886984 1.3175715
10.543894 22.674826 1.3105327
10.773301 22.382542 1.3018459
11.057944 22.012516 1.2910153
11.212776 21.800413 1.2847812
11.458054 21.490091 1.2763573
11.72121 21.164162 1.2679166
11.877163 20.929998 1.2612154
12.164742 20.567312 1.2523371
12.327847 20.302343 1.2447933
12.360886 20.31089 1.2460757
12.532071 20.076025 1.2403262
12.843797 19.681967 1.2317059
12.988728 19.475525 1.2268411
13.208713 19.19338 1.2210872
13.505687 18.811121 1.213634
13.65688 18.596428 1.2091841
13.835415 18.404016 1.2066692
17.104122 14.075063 1.1608857
17.205805 13.902789 1.1592999
17.246283 13.906767 1.1610806
17.402636 13.646586 1.1590409
17.708458 13.265799 1.1596116
17.852537 13.05715 1.159162
18.111712 12.749799 1.1608359
18.398573 12.406143 1.1629704
18.561758 12.198908 1.164068
18.818579 11.857582 1.1657263
19.03841 11.54239 1.1668141
19.173613 11.331886 1.1672456
19.482111 10.9363 1.170908
19.619312 10.725081 1.1718109
19.699375 10.711473 1.1751516
19.854342 10.428909 1.1753644
20.119324 10.084472 1.179463
20.290211 9.8489571 1.1820273
20.534306 9.5330601 1.1865082
20.79788 9.2104397 1.1920789
20.940762 8.9964132 1.1944689
21.230318 8.6484699 1.2014327
21.399364 8.3547373 1.2039363
21.483631 8.3416576 1.2078054
21.626938 8.1043406 1.2104112
21.913429 7.7194333 1.2176268
22.058592 7.5218315 1.2214036
22.303118 7.2270899 1.2287186
22.572412 6.884501 1.2367841
22.732992 6.638742 1.2411547
22.986786 6.3384533 1.2496748
23.24666 6.0098238 1.258369
23.388063 5.7939277 1.2627844
23.693504 5.4068217 1.2736659
23.821856 5.1551986 1.2773501
23.963091 5.1394005 1.28441
24.073612 4.9340296 1.287885
17.045673 14.120759 1.9365871
17.150282 13.93061 1.9330864
17.307341 13.890517 1.9415636
17.425879 13.640344 1.9361439
17.729179 13.280431 1.9380569
17.840809 13.056931 1.9342461
18.116993 12.749965 1.9382645
18.374218 12.432082 1.9409401
18.50779 12.178843 1.9383726
18.841862 11.83657 1.9467872
19.070061 11.592619 1.9525076
19.229568 11.324176 1.9524463
19.478964 10.943042 1.9547399
19.596565 10.678375 1.9525003
19.729006 10.714912 1.9641999
19.842318 10.471906 1.9629356
20.182671 10.062231 1.9730711
20.285677 9.8093405 1.9713911
20.549559 9.5603857 1.9829431
20.793667 9.2099257 1.989684
20.868929 9.0535879 1.9902115
21.053711 8.7896938 1.9960408
9.0396481 24.696821 2.3009176
9.2735052 24.414305 2.2848713
9.4233427 24.140268 2.2672327
9.7261972 23.781946 2.2479622
9.8687954 23.511391 2.2308383
9.9945107 23.488209 2.2332616
10.117437 23.286098 2.2212772
10.369591 22.913839 2.2004492
10.529194 22.664907 2.1864471
10.764309 22.37632 2.1724479
11.104358 22.002264 2.1562417
11.209067 21.783512 2.1433315
11.453379 21.513277 2.1323287
11.772562 21.163588 2.1187801
11.874226 20.9132 2.1040542
12.143221 20.615274 2.0932817
12.31086 20.299974 2.0770903
12.409707 20.29674 2.0813518
12.556454 20.064138 2.070833
12.866567 19.704718 2.0589571
12.998535 19.432447 2.0454099
13.240264 19.187416 2.0396113
13.494996 18.852707 2.0284388
13.672803 18.61232 2.0205426
13.810066 18.459606 2.0169482
21.10564 8.9283972 2.0049307
21.18195 8.7406654 2.0047758
21.573906 8.2965708 2.0222309
21.665714 8.0644627 2.0225945
21.910852 7.7404718 2.0330801
22.074675 7.4985919 2.0396709
22.33326 7.2149796 2.0533769
22.597279 6.8481531 2.0658236
22.770611 6.6131268 2.0744927
23.012722 6.2830076 2.0870781
23.39068 5.8449616 2.1093433
23.687542 5.4633784 2.1268034
11.195661 21.660526 2.993834
11.423604 21.417324 2.9804566
11.586741 21.15704 2.9618154
11.721679 21.122372 2.9661016
11.811985 20.891418 2.9468191
12.119547 20.517872 2.9260006
12.24733 20.315241 2.9126391
12.491673 20.018139 2.8972666
12.817131 19.668072 2.8825529
12.927632 19.425623 2.8650789
13.203186 19.114107 2.8524718
13.442443 18.843699 2.842118
13.587419 18.598267 2.8281395
13.868702 18.234118 2.8129592
14.037474 17.942907 2.7972252
14.074955 17.970476 2.8027167
14.219469 17.728889 2.7905643
14.575432 17.318317 2.7793255
14.6792 17.105272 2.7676296
14.794095 17.108917 2.7771587
14.943557 16.801739 2.7609625
15.236997 16.460428 2.754087
15.339168 16.229107 2.7419176
15.620955 15.907255 2.7375383
15.911633 15.579058 2.7342513
16.031254 15.378967 2.7277374
16.279411 15.002697 2.7182925
16.431818 14.77052 2.7128737
16.66958 14.474731 2.7107725
16.966284 14.109486 2.7094779
17.117931 13.904028 2.7078078
17.376923 13.584078 2.7082529
17.673359 13.25634 2.7126424
17.780327 13.066642 2.709312
18.105791 12.66205 2.7128756
18.341267 12.402038 2.7185621
18.455698 12.154853 2.7134452
18.774729 11.807992 2.7233233
18.84296 11.556001 2.7140815
19.044271 11.546064 2.7345533
19.124868 11.337823 2.7299385
19.448139 10.909202 2.7380421
19.543512 10.692303 2.7353177
19.820885 10.393625 2.7480669
20.118156 10.058632 2.7617517
20.209433 9.8436117 2.7601502
20.513407 9.4860277 2.7750461
20.711203 9.2138529 2.7832766
20.859785 9.0166759 2.7903235
21.158346 8.6709623 2.8076496
21.606318 8.0276861 2.8301723
21.855793 7.7333193 2.8466249
21.92288 7.5419497 2.8466723
22.290428 7.1599784 2.874711
22.558569 6.8008041 2.8929954
22.67341 6.6205339 2.9002604
22.982002 6.2473917 2.9242864
23.090502 6.0060186 2.9294953
23.345772 5.8077736 2.9538691
23.642738 5.4191885 2.9782605
8.8080349 24.853468 3.2375889
8.9923058 24.606342 3.2167547
9.1420193 24.354853 3.1941345
9.2117472 24.362217 3.1980021
9.3658447 24.101431 3.1749229
9.6656523 23.73234 3.1464214
9.7912607 23.509415 3.1269524
10.050006 23.22934 3.1077342
10.287902 22.910181 3.0836201
10.465488 22.633621 3.061763
10.724463 22.299944 3.0383079
10.99619 22.011272 3.0211532
11.114647 21.822641 3.007035
11.303577 21.686237 3.0027387
15.985388 15.23901 3.4980068
16.218597 14.95321 3.4939892
16.376427 14.743074 3.490046
16.652155 14.389244 3.4857972
16.857563 14.133631 3.4842508
17.046787 13.875003 3.481297
17.335691 13.512332 3.4813442
17.499119 13.252733 3.4767251
17.531185 13.255834 3.4810722
17.7055 13.022512 3.4811821
18.000261 12.631305 3.4829412
18.149553 12.417271 3.4830055
18.376287 12.122753 3.4868948
18.665361 11.75042 3.4933665
18.794001 11.556107 3.4944108
18.996048 11.275087 3.4987819
10.053415 23.060217 3.9844193
10.226612 22.83989 3.9635656
10.376753 22.625526 3.9424891
10.686957 22.223671 3.9057631
10.861262 22.001776 3.8862181
10.885911 22.003111 3.8881361
11.065227 21.733244 3.8627446
11.338646 21.385962 3.8338764
11.524985 21.123772 3.8112471
11.741729 20.852787 3.7904308
12.000589 20.514244 3.7642677
12.154435 20.300465 3.7475498
12.443899 19.931791 3.721704
12.672183 19.636106 3.7014551
12.817386 19.442371 3.6883845
13.130319 19.036175 3.6627591
13.297855 18.799133 3.6471148
13.512019 18.531076 3.6324949
13.779263 18.183968 3.6135919
13.946641 17.948071 3.6000576
14.180881 17.631969 3.5838823
14.446146 17.310223 3.5710149
14.587942 17.105082 3.5606682
14.894645 16.717421 3.5463519
15.12514 16.437952 3.5379581
15.260155 16.225096 3.5279033
15.571071 15.831507 3.5171123
15.743408 15.598799 3.5102015
15.938156 15.34371 3.5041256
18.791542 11.628558 3.5000646
18.869375 11.509785 3.5007324
19.085041 11.201432 3.505048
19.303766 10.929254 3.5134535
19.458269 10.691013 3.5164902
19.747215 10.310998 3.5284297
19.934052 10.049742 3.5357835
19.967274 10.053731 3.5407696
20.140062 9.7923584 3.5470161
20.442142 9.4106655 3.5643911
20.602169 9.1734533 3.5719349
20.851242 8.8757992 3.58936
21.088062 8.5657835 3.6050711
21.240116 8.3531904 3.6149423
21.514198 7.9808469 3.6344986
21.672054 7.700027 3.6427329
21.750566 7.6817379 3.653492
21.903385 7.4736495 3.6656065
22.221571 7.0735426 3.6936378
22.333666 6.8717122 3.7009563
22.416929 6.8513227 3.7126179
22.574606 6.6011128 3.7252657
22.879435 6.2132392 3.7550421
23.01582 5.996069 3.7670393
23.289989 5.6599302 3.7962081
23.556656 5.3316703 3.8254066
23.682922 5.1529183 3.8387918
23.969643 4.7831936 3.8713403
24.214174 4.4934363 3.9006271
24.33568 4.2946582 3.9140043
24.652533 3.8831325 3.9527822
8.7211943 24.814463 4.165905
8.893157 24.587177 4.1411619
9.0603905 24.358339 4.1162295
9.280221 24.079227 4.0872741
9.5558338 23.717724 4.0499597
9.733161 23.479156 4.0256057
9.9091368 23.269297 4.0057611
12.882051 19.211981 4.4962344
13.179959 18.98962 4.4932208
13.297567 18.794693 4.475256
13.407534 18.801964 4.4887962
13.518497 18.552477 4.4621286
13.822385 18.185215 4.4401116
13.933518 17.949453 4.4169135
14.193474 17.628494 4.3993697
14.44812 17.345238 4.3880868
14.608383 17.075712 4.3681278
14.871243 16.754675 4.3547277
15.047743 16.450527 4.3336539
15.135948 16.437304 4.3434124
15.283856 16.230173 4.3335662
15.578101 15.851828 4.3202205
15.69634 15.605306 4.302352
15.794229 15.607561 4.3161788
15.933447 15.334712 4.298625
16.209169 14.949257 4.2861972
16.337994 14.752669 4.2789354
16.634186 14.38261 4.2745194
16.884907 14.100713 4.2760935
17.025858 13.890541 4.2712622
17.327785 13.551104 4.2759972
17.502209 13.25146 4.2672062
17.589703 13.235133 4.2788806
17.707281 13.025266 4.272954
18.006565 12.651073 4.2777309
18.139843 12.370666 4.2679248
18.248617 12.409725 4.2896585
18.422901 12.106057 4.2851238
18.717777 11.766659 4.2976322
18.757151 11.572993 4.2842102
19.075586 11.250562 4.3048844
19.359564 10.919332 4.3204546
19.478825 10.679378 4.3180985
19.758057 10.363082 4.3369298
19.958824 10.053903 4.3440242
20.170849 9.7790794 4.3573976
20.456615 9.4398584 4.3794556
20.550428 9.2055693 4.3771267
20.705612 9.2046471 4.4045396
20.834791 8.9772472 4.409934
21.119036 8.5582724 4.42944
21.224489 8.35114 4.4335284
21.514393 8.0012522 4.4619184
21.65239 7.7015486 4.4671106
21.769224 7.7387762 4.4909534
21.879398 7.4573908 4.4932861
9.3738708 23.910969 4.9922457
9.5476761 23.71912 4.970047
9.6922932 23.500095 4.9412932
9.9793825 23.151093 4.9004545
10.129378 22.847475 4.8579969
10.230915 22.851025 4.8666468
10.364532 22.5963 4.8323488
10.670602 22.245918 4.7959528
10.805318 22.0236 4.7684469
10.897973 22.005499 4.7732506
11.044424 21.753077 4.7422414
11.357072 21.371792 4.704442
11.488927 21.148628 4.6783323
11.744578 20.838615 4.6497502
12.035697 20.505327 4.621738
12.144583 20.28693 4.5960145
12.463736 19.933712 4.5699048
12.570918 19.650412 4.5343828
12.726778 19.672686 4.5544415
12.847262 19.42005 4.5261946
13.073451 19.165501 4.5096173
22.026167 7.3783684 4.5153041
22.224289 7.1191044 4.5362921
22.301975 6.8401103 4.5343852
22.506416 6.8429017 4.5725451
22.59407 6.5746689 4.5741067
22.900978 6.2408528 4.6138887
22.993761 6.0301785 4.6206946
23.14855 6.0114141 4.6488705
23.27314 5.7165833 4.6584096
23.500252 5.3997126 4.6870346
8.6864223 24.867182 5.1201305
8.8875256 24.581854 5.0809999
9.027482 24.338673 5.0459261
9.2600965 24.095703 5.0177464
11.87007 20.585367 5.4860063
11.861355 20.478382 5.4636111
11.973 20.523773 5.4856319
12.120827 20.29089 5.456779
12.396734 20.079985 5.4483008
12.872971 19.390066 5.3733311
13.297861 18.864262 5.3284764
13.376877 18.809187 5.3286405
13.49844 18.480684 5.283596
13.837749 18.174799 5.2738557
13.918278 17.920834 5.2386618
14.178912 17.587162 5.2156148
14.397368 17.315199 5.1989059
14.612652 17.081364 5.1897578
14.871688 16.73197 5.1682968
15.057179 16.45141 5.1487622
15.277626 16.181698 5.1379333
15.491493 15.896487 5.1245184
15.640534 15.621843 5.1035695
15.973204 15.251878 5.0989604
16.253387 14.944201 5.0975232
16.347353 14.729774 5.080225
16.616133 14.43559 5.0817599
16.770838 14.100754 5.0585546
16.854227 14.126993 5.0772138
16.992674 13.883438 5.0660686
17.287491 13.491675 5.0628138
17.454491 13.244837 5.0585198
18.552675 12.020646 5.1036897
18.68577 11.812653 5.1036897
19.875952 10.116381 5.1489048
20.12985 9.8192692 5.1709499
21.484451 7.9459834 5.2885618
21.534113 7.7463889 5.2834253
21.737185 7.7573667 5.3284159
9.0521336 24.257433 5.9775085
9.2739887 24.003935 5.9410486
9.5714188 23.754402 5.9126053
9.7126083 23.485909 5.8675385
9.9762039 23.132185 5.8160677
10.233513 22.837297 5.777586
10.352523 22.576735 5.7342086
10.641428 22.281635 5.7007532
10.794695 21.990606 5.6556296
11.053057 21.730801 5.6287374
11.356231 21.366901 5.5864301
11.449052 21.150959 5.5526199
11.697265 20.877844 5.5250735
11.994473 20.62475 5.5082741
14.235431 17.281363 5.9992847
14.484609 17.004761 5.9854589
14.761834 16.649967 5.962357
14.915786 16.429359 5.9458818
15.16783 16.105406 5.9281468
15.39511 15.825345 5.9158912
15.543141 15.597406 5.9002762
15.833604 15.243073 5.8892789
16.02239 14.946412 5.8711519
16.05435 14.953222 5.8786674
16.21883 14.700252 5.8654037
16.535929 14.308243 5.8593683
16.669542 14.097235 5.8497214
16.914646 13.816958 5.8523273
17.207838 13.447487 5.8518128
17.335466 13.251623 5.8467827
17.633614 12.906317 5.8554487
17.879642 12.601355 5.8611908
18.017546 12.372596 5.8565831
18.313883 12.004498 5.8675957
18.474131 11.746297 5.8660016
18.561169 11.731805 5.8836298
18.688818 11.497986 5.8796272
18.998285 11.114296 5.897809
19.130171 10.885134 5.8976526
19.353619 10.599708 5.9127641
19.658001 10.246621 5.9400043
19.788857 10.019723 5.9434476
20.06727 9.6785316 5.9698739
20.291428 9.421401 5.994555
20.402756 9.1853294 5.9954863
8.6707811 24.820169 6.0697999
8.8606091 24.596561 6.0358038
8.9650698 24.404989 6.0025077
9.1535673 24.336548 6.0028191
11.012321 21.53828 6.4818182
11.134283 21.348339 6.4515386
11.16798 21.353285 6.4568958
11.366312 21.070965 6.4151216
11.63701 20.740294 6.3724513
11.787188 20.510651 6.3387175
12.031228 20.214657 6.303369
12.317101 19.878851 6.2661796
12.467597 19.631311 6.2313838
12.720361 19.3258 6.199513
12.984921 19.003977 6.1672993
13.124159 18.789845 6.1413579
13.435735 18.389061 6.1025128
13.583171 18.148777 6.0741234
13.661429 18.134766 6.0837202
13.804539 17.892305 6.0554266
14.093947 17.510921 6.023149
14.23941 17.3155 6.0069885
14.394465 17.162743 6.0020804
20.33534 9.3892899 6.0016217
20.474779 9.144558 6.0085802
20.767056 8.8031015 6.0439162
20.889603 8.5299606 6.0460382
21.040659 8.5312557 6.0836535
21.162539 8.2585745 6.0871077
21.37373 7.9297733 6.1085734
21.549623 7.6830215 6.1302319
21.821581 7.3914905 6.1735349
22.082113 7.0513272 6.211278
22.185783 6.8438196 6.2211475
22.530474 6.4634809 6.2806683
22.669123 6.1973176 6.2970672
22.76152 6.1744518 6.3193569
22.875509 5.9574127 6.3340373
23.169271 5.5842118 6.3860278
9.9683609 22.946114 6.7035141
10.001874 22.820501 6.6762743
10.282785 22.439962 6.6141052
10.544636 22.16131 6.576056
10.654747 21.992346 6.5480752
10.891472 21.716688 6.5098166
-5.3105845 22.46641 -2.0197475
-5.5969663 22.233089 -2.0058506
-4.4351139 23.128756 -2.0603831
-4.7543974 22.880844 -2.0446217
-5.0738788 22.631052 -2.0291224
-3.5828166 23.756889 -2.101964
-3.8181803 23.586418 -2.0904479
-4.2003331 23.282976 -2.0699019
-3.4284599 23.887354 -2.1112945
-3.5794315 23.734421 -2.0999742
-10.633959 18.581417 -1.8730553
-10.887605 18.380388 -1.8690768
-11.102678 18.223433 -1.866941
-10.013396 19.033138 -1.8816019
-10.363215 18.760847 -1.875178
-10.632995 18.560724 -1.8714412
-9.1272335 19.701784 -1.8996761
-9.4669828 19.434244 -1.8913444
-9.782732 19.193565 -1.8847694
-8.2877398 20.33647 -1.9212829
-8.5448132 20.13364 -1.9135869
-8.979516 19.803394 -1.9023908
-7.6602621 20.807808 -1.9399238
-8.0914459 20.469162 -1.925698
-6.7621255 21.360958 -1.9602509
-7.0896568 21.123928 -1.9494867
-7.3986931 20.936878 -1.9427544
-6.1619897 21.794428 -1.9815476
-6.550261 21.496122 -1.9660761
-5.7412915 22.095478 -1.997308
-5.9459982 21.944748 -1.9891492
-12.326798 17.380404 -1.1167167
-11.495728 17.977671 -1.1183339
-11.83844 17.723509 -1.1170312
-12.146878 17.494635 -1.1161849
-10.619134 18.646599 -1.1245865
-10.896786 18.430202 -1.1221094
-11.283903 18.131056 -1.1192123
-10.014661 19.09544 -1.1300503
-10.418854 18.787302 -1.125897
-9.1893663 19.687263 -1.1386309
-9.5239048 19.464703 -1.1356955
-9.7814817 19.266491 -1.1323916
-8.3369169 20.321188 -1.1511294
-8.5390234 20.135201 -1.1462458
-8.8991966 19.823111 -1.1387911
-8.2597599 20.214273 -1.144411
-6.7983651 21.492319 -1.1813903
-7.1420054 21.19862 -1.1723639
-7.3705106 20.936735 -1.1632537
-5.964293 22.129135 -1.2011298
-6.2838383 21.891905 -1.1936588
-6.5914121 21.664186 -1.1867616
-5.0889988 22.782942 -1.2234285
-5.3456998 22.587704 -1.2164944
-5.7301621 22.301804 -1.2067608
-4.4653296 23.252583 -1.2409017
-4.8471541 22.962912 -1.2299746
-3.5837812 23.916229 -1.2673994
-3.9715049 23.621689 -1.2553617
-4.2499914 23.401899 -1.2465028
-2.7255394 24.560423 -1.2950594
-3.0310912 24.328428 -1.284875
-3.3722005 24.071371 -1.2738514
-2.552634 24.688152 -1.3007537
-12.359387 17.408381 -0.37266642
-11.485461 18.041862 -0.37332538
-11.863252 17.758976 -0.37279767
-12.133368 17.555799 -0.37250382
-10.667745 18.653955 -0.3750912
-10.953238 18.437918 -0.37435478
-11.281046 18.188553 -0.37359333
-9.7877855 19.32004 -0.37803978
-10.05877 19.116953 -0.37706995
-10.404234 18.848475 -0.37580267
-9.1481314 19.797348 -0.38068151
-9.5647879 19.482635 -0.37884963
-8.2971258 20.429953 -0.38489604
-8.6385241 20.175867 -0.38310397
-8.9457722 19.943377 -0.38153103
-7.4177537 21.097164 -0.3903513
-7.71422 20.868654 -0.38836461
-8.0751057 20.536966 -0.38519296
-6.8210845 21.537777 -0.39435464
-7.2189975 21.240103 -0.39158374
-5.954648 22.180088 -0.40086767
-6.321785 21.911257 -0.39807117
-6.580379 21.714386 -0.39604849
-5.0773387 22.836727 -0.40834999
-5.3695259 22.618727 -0.40579218
-5.7239928 22.34812 -0.40268219
-4.234623 23.482058 -0.4164924
-4.497458 23.278902 -0.41385749
-4.8498349 23.005232 -0.41038808
-3.6162717 23.941259 -0.42264023
-3.9698925 23.67046 -0.41894877
-4.2324171 23.468504 -0.41625288
-2.7430263 24.597837 -0.4320195
-3.0977948 24.331011 -0.42813492
-3.3903122 24.112761 -0.42503172
-2.1915185 25.020935 -0.43841976
-2.531677 24.757757 -0.43440378
-12.140731 17.602423 0.37324604
-12.410872 17.41293 0.37325448
-11.502456 18.084682 0.37411928
-11.905908 17.77706 0.37347129
-10.657316 18.710047 0.37585169
-11.005659 18.45306 0.37504768
-11.302321 18.227907 0.37436986
-9.774189 19.379848 0.37886453
-10.083646 19.15188 0.37781167
-10.413763 18.88829 0.37648734
-9.1706152 19.832626 0.38140538
-9.5725365 19.521976 0.37952653
-8.3440456 20.443565 0.38542637
-8.6768684 20.196472 0.38369843
-8.9318628 20.003822 0.38239318
-7.4401608 21.136345 0.39112827
-7.7669559 20.886438 0.38897729
-8.0813808 20.583923 0.38599578
-6.5873775 21.766031 0.39694607
-6.8580136 21.566696 0.39503199
-7.2056136 21.304068 0.39256468
-5.9709535 22.224764 0.40169567
-6.3451686 21.949631 0.39882672
-6.5837393 21.749224 0.39664665
-5.0982389 22.883301 0.40922442
-5.436913 22.623661 0.40614933
-5.7400169 22.390827 0.40347242
-4.2205601 23.549519 0.41760871
-4.5323052 23.314066 0.41457531
-4.8599734 23.058065 0.41132396
-3.6159387 24.001772 0.42368585
-4.0209894 23.697868 0.41956538
-2.7346141 24.668974 0.4332388
-3.1109641 24.384718 0.42909396
-3.3838189 24.175501 0.42609856
-1.8901864 25.311737 0.44304982
-2.2100217 25.064806 0.43921492
-2.5279715 24.817059 0.43542629
-1.3083504 25.747362 0.45000803
-1.6866685 25.460278 0.4453879
-12.163868 17.648703 1.123338
-12.448964 17.446623 1.1232716
-11.28846 18.30901 1.1272538
-11.509952 18.12421 1.1252246
-11.903625 17.831789 1.1236333
-10.666685 18.7665 1.1312958
-11.017614 18.493008 1.1281716
-11.286063 18.286671 1.1261941
-9.7939844 19.420561 1.1399013
-10.121367 19.169376 1.136101
-10.406549 18.948507 1.1329583
-8.9404335 20.059114 1.1509415
-9.1990385 19.863853 1.1472642
-9.581378 19.5788 1.1423739
-8.3321085 20.492714 1.1593738
-8.7066765 20.229946 1.1542516
-7.4609013 21.169945 1.1763626
-7.8084326 20.909637 1.1697773
-8.1214466 20.61231 1.1610789
-6.5755658 21.835239 1.1951005
-6.8837781 21.603615 1.1883104
-7.2246313 21.345638 1.1810225
-5.9692411 22.282045 1.2089493
-6.3733859 21.983116 1.1995426
-5.1178865 22.929953 1.2312931
-5.4631147 22.661648 1.2216927
-5.7351775 22.454676 1.214582
-4.2421441 23.594126 1.2563508
-4.5975723 23.324087 1.2459095
-4.854032 23.122673 1.2382269
-3.3905168 24.237223 1.2825842
-3.6478989 24.041372 1.2743967
-4.039022 23.741861 1.2621467
-2.7970421 24.690125 1.3022462
-3.1501834 24.418287 1.2903301
-1.8797628 25.388239 1.3341923
-2.2760472 25.081957 1.3199115
-2.553205 24.863125 1.3098741
-1.0657216 26.005222 1.3640219
-1.3233949 25.804443 1.3541498
-1.6786875 25.534914 1.3411243
-0.83808351 26.172728 1.3723624
-12.150261 17.709053 1.8789651
-12.509364 17.457153 1.8789926
-11.273 18.381275 1.8865019
-11.569529 18.143259 1.8826497
-11.937784 17.863104 1.879707
-10.674321 18.814831 1.892589
-11.057717 18.528721 1.8878279
-9.7948866 19.478935 1.9075335
-10.183104 19.18597 1.9003721
-10.45637 18.962036 1.8944817
-8.9683819 20.106153 1.926127
-9.2633982 19.877188 1.9186625
-9.5801983 19.63246 1.9112279
-8.0905228 20.766567 1.9498539
-8.3356075 20.540373 1.9394362
-8.7059517 20.289095 1.9316067
-7.4480376 21.245602 1.9696939
-7.8363733 20.949497 1.9569223
-8.0858021 20.743866 1.9478525
-6.6316381 21.848589 1.9976181
-6.9149942 21.639622 1.9875908
-7.2453432 21.396114 1.9763325
-6.5162449 21.908926 1.9997668
-6.560524 21.915348 2.0014195
-5.7447085 22.512589 2.0327115
-6.0006652 22.319736 2.0221052
-6.3861537 22.037271 2.0073493
-5.1224847 22.989016 2.0606391
-5.509038 22.687529 2.042613
-4.2746906 23.633467 2.1012263
-4.628294 23.361052 2.0835929
-4.9051356 23.135672 2.0691056
-3.4185045 24.288435 2.1459186
-3.7128913 24.052427 2.1292849
-4.0316911 23.815287 2.1132233
-2.5379758 24.951235 2.1942122
-2.8084435 24.74509 2.1788454
-3.1579282 24.471691 2.158767
-1.9007757 25.432043 2.2312453
-2.3180883 25.117476 2.206862
-2.5367775 24.922203 2.1916764
-1.0619621 26.071421 2.2828529
-1.4082761 25.80711 2.2612195
-1.7004877 25.576082 2.242557
-0.60728449 26.445234 2.314271
-0.80663872 26.256804 2.2982619
-12.791681 17.415178 2.6531587
-12.145736 17.758175 2.6416821
-12.528311 17.474314 2.64011
-11.283193 18.393312 2.6495104
-11.614595 18.151405 2.6460211
-11.933555 17.913702 2.6429234
-10.441813 19.044205 2.6667552
-10.663697 18.856224 2.6599197
-11.054975 18.558212 2.6523747
-9.8232107 19.487286 2.6795814
-10.186983 19.222954 2.6712778
-10.43918 19.021481 2.6641502
-8.9477692 20.151941 2.7072983
-9.2461157 19.924887 2.6971288
-9.5620775 19.68088 2.6866305
-8.0945702 20.797478 2.7401738
-8.3478823 20.563086 2.7250416
-8.737813 20.312696 2.7150793
-7.4726467 21.263981 2.7674615
-7.8527813 20.96974 2.7494147
-6.5910163 21.926315 2.8112438
-6.9321704 21.663471 2.7928772
-7.2551422 21.408754 2.7755096
-5.728972 22.567879 2.8588805
-6.0360103 22.332806 2.8405733
-6.3778138 22.076918 2.8215654
-4.8908772 23.219551 2.9135621
-5.1211281 23.028194 2.8966224
-5.5035667 22.734602 2.872134
-4.2723188 23.674803 2.9538901
-4.6242089 23.401806 2.9290051
-4.8875003 23.199883 2.9111125
-3.7807007 24.042715 2.9883814
-4.0100989 23.861216 2.9708633
-12.836138 17.396021 3.4241407
-12.176112 17.781353 3.4133527
-12.55717 17.501385 3.4117088
-11.299299 18.430849 3.424098
-11.655091 18.163767 3.4182701
-11.915553 17.963364 3.4141562
-10.445198 19.072227 3.444088
-10.703736 18.872818 3.4365318
-11.088026 18.586134 3.4278395
-9.8237839 19.538578 3.46382
-10.204904 19.248369 3.4506838
-8.9718456 20.174452 3.4970589
-9.3300562 19.910553 3.4826822
-9.6088676 19.691299 3.4703147
-3.3986914 24.33814 3.0173609
-3.5982411 24.190935 3.0029459
-2.5233834 25.009733 3.0864015
-2.8180094 24.778507 3.0620661
-3.1882713 24.493353 3.0327909
-1.6909213 25.661221 3.1576347
-1.9207947 25.460835 3.1351125
-2.327915 25.151955 3.1014988
-1.0845331 26.101385 3.2076252
-1.416713 25.844334 3.1780882
-1.6872146 25.642073 3.1552525
-0.19328663 26.773462 3.2874784
-0.54881155 26.503969 3.2550173
-0.80799168 26.303864 3.2312241
0.66110462 27.412853 3.3668501
0.40174636 27.219156 3.3424976
-0.0021018293 26.913332 3.3045743
1.2956126 27.893147 3.4285731
0.91280842 27.601086 3.3908706
1.7722526 28.260494 3.4768057
1.5191953 28.0672 3.4512744
-8.8990116 20.246241 3.5027974
-8.1190195 20.832329 3.5412619
-8.3800573 20.58905 3.5208328
-8.7315454 20.359667 3.5087202
-7.240972 21.493683 3.592253
-7.5037775 21.2892 3.5752907
-7.857501 21.017467 3.5539138
-6.6235228 21.953403 3.6319315
-7.0081301 21.662306 3.6061347
-7.2382627 21.476114 3.5894799
-5.7245607 22.627771 3.6968191
-6.1047635 22.340008 3.6681149
-6.3618226 22.136871 3.6480625
-4.8744392 23.281033 3.7673106
-5.1682329 23.053558 3.7420363
-5.5553193 22.752516 3.7095368
-4.2712498 23.735344 3.8197463
-4.6425605 23.457493 3.7874265
-3.4200428 24.386633 3.9002953
-3.7663014 24.120415 3.8666534
-4.0373735 23.907795 3.8402336
-2.5457821 25.053789 3.9885824
-2.9017026 24.781641 3.9519022
-3.1574607 24.581209 3.9252787
-2.4478784 25.114893 3.9966569
2.1582737 28.554749 3.5160923
1.9873209 28.440006 3.500504
2.98247 29.179802 3.60151
2.711391 28.969208 3.5725517
2.3713894 28.715958 3.5378876
3.8599372 29.847363 3.6953084
3.597492 29.642248 3.6663489
3.2440584 29.37071 3.6282139
4.3535848 30.212698 3.7479758
4.0674767 29.997673 3.7169762
3.8638146 29.831251 3.693413
5.3429098 30.969166 3.8587165
4.9794397 30.689552 3.8175056
4.7293706 30.503052 3.7900188
6.2271552 31.639309 3.9593439
5.9004354 31.389757 3.9217055
5.5854616 31.146439 3.8853219
6.4249101 31.780966 3.9811633
-12.809564 17.410046 4.2014742
-11.944839 18.046686 4.2067199
-12.19247 17.8447 4.2011113
-12.561026 17.576948 4.1994371
-11.324492 18.488007 4.2143617
-11.677931 18.228571 4.2081571
-11.9417 18.026875 4.2031693
-10.450181 19.15778 4.2419109
-10.766423 18.913877 4.2305346
-11.087596 18.65097 4.2176514
-9.5963488 19.797903 4.2765822
-9.8530302 19.59499 4.263411
-10.213937 19.317923 4.2476616
-9.0025873 20.239391 4.3058534
-9.3618431 19.964066 4.2861958
-8.1176701 20.90612 4.3593593
-8.4492159 20.623133 4.3322287
-8.758007 20.417297 4.31844
-7.2354422 21.576416 4.4235678
-7.5322995 21.343367 4.3995867
-7.8716402 21.0807 4.3740501
-6.3935533 22.220747 4.494513
-6.6429057 22.019814 4.4708509
-7.0076385 21.741182 4.4402118
-6.3094835 22.260225 4.4974189
-6.3904428 22.192892 4.4891443
-1.6946427 25.698635 4.0791044
-1.95251 25.500326 4.0507345
-2.3071077 25.234396 4.0134192
-1.0747327 26.170912 4.1486025
-1.4645782 25.870317 4.1040525
-0.18562739 26.846924 4.2522569
-0.58503455 26.542824 4.2050347
-0.8339678 26.351761 4.1757984
0.62876141 27.467081 4.3515067
0.32638109 27.233255 4.3136997
0.017040001 26.994541 4.2755303
1.509903 28.134077 4.4624186
1.2377964 27.926325 4.4274802
0.92773813 27.684923 4.3873544
1.6732817 28.26058 4.483891
6.8316245 32.087509 4.0281825
6.5904784 31.915159 4.00137
7.3259721 32.459351 4.0857639
7.0674367 32.267281 4.0558205
-5.7740779 22.679146 4.5490613
-6.1301155 22.403282 4.5149202
-4.9002242 23.340572 4.6358767
-5.2443852 23.081219 4.6009607
-5.514029 22.862434 4.5714498
-4.0261393 24.017124 4.7336111
-4.3220596 23.783226 4.6987834
-4.6906443 23.496723 4.6574492
-3.4284105 24.463034 4.8016558
-3.826823 24.158281 4.7545133
-2.5841138 25.101357 4.9050269
-2.9182668 24.848579 4.8633437
-3.1868539 24.636032 4.8286572
-2.0436385 25.525402 4.9775786
-2.3089855 25.309004 4.9400096
2.1443048 28.622284 4.5460629
1.8567706 28.40447 4.5084333
2.9859366 29.256647 4.6578774
2.6155109 28.980154 4.6086988
2.3452599 28.768602 4.5716157
3.8664122 29.927155 4.7793922
3.5759993 29.706192 4.7390003
3.2451673 29.453337 4.6931872
4.7108288 30.575132 4.8997669
4.3984613 30.333775 4.8547115
4.0838637 30.090055 4.8095074
5.2986288 31.015213 4.9835081
4.9099164 30.721416 4.9275751
4.7119794 30.555103 4.8966594
-10.478382 19.223955 5.0547352
-10.722066 19.071686 5.0511808
-9.5816622 19.88154 5.0952916
-9.9008055 19.613144 5.0724449
-10.236643 19.369183 5.0578661
-8.7439356 20.503849 5.1461558
-9.0018873 20.28109 5.1228876
-9.3963537 19.990467 5.099658
-8.0822897 20.993944 5.1936917
-8.4838076 20.630457 5.1500459
-8.7411079 20.467802 5.1382484
-7.2409096 21.650055 5.2704997
-7.5698271 21.372 5.2346239
-7.893518 21.100872 5.2012463
-6.8481278 21.978308 5.3147192
-7.0046487 21.805994 5.2877216
-1.6993883 25.785337 5.0230532
-1.8453534 25.677038 5.0039954
-0.82310623 26.462097 5.1462021
-1.1227665 26.223635 5.1020837
-1.4885948 25.94297 5.051126
-0.22115138 26.91206 5.2313957
-0.60137635 26.622192 5.1762104
0.62741494 27.563923 5.3593125
0.26727188 27.27986 5.3029752
0.011667056 27.086502 5.2650871
1.4648547 28.200092 5.4889321
1.1820352 27.981302 5.443943
0.90329993 27.75919 5.3987002
5.4509416 31.132772 5.005959
6.1767755 31.68251 5.1125078
5.861948 31.444035 5.0660801
5.5520844 31.205074 5.0200205
7.0757303 32.365299 5.2472315
6.7633901 32.128113 5.2001491
6.4345574 31.874313 5.1502442
7.2151117 32.464287 5.2673087
1.5725011 28.287683 5.5070648
2.37746 28.906191 5.6377654
2.103281 28.682442 5.5903163
1.7389971 28.404238 5.5315909
2.9731662 29.34794 5.7338986
2.6128743 29.072195 5.6738892
3.8790646 30.040232 5.8877292
3.4528019 29.714737 5.8148613
3.2176523 29.529593 5.7739444
4.2964754 30.361551 5.9605603
4.0464334 30.156967 5.914465
4.7049913 30.68012 6.0333357
4.5636563 30.566124 6.0073123
5.5695915 31.35651 6.1904855
5.2649255 31.100119 6.131309
4.940414 30.851917 6.0734339
5.636703 31.385586 6.1983352
12.057471 -16.345612 -0.35454336
11.737033 -16.595304 -0.35481074
11.435102 -16.851929 -0.35548082
12.909497 -15.712133 -0.35495493
12.654463 -15.903668 -0.35476619
12.271244 -16.203691 -0.3547976
13.541068 -15.32309 -0.35693902
13.171874 -15.547492 -0.35569137
12.913669 -15.746681 -0.35546696
14.390226 -14.589878 -0.35770029
14.140132 -14.908286 -0.35866854
13.765155 -15.178941 -0.35767594
14.467339 -14.653636 -0.35943604
12.071741 -16.372507 0.35506645
11.780573 -16.60137 0.35533491
11.465979 -16.858028 0.35587031
12.910812 -15.721601 0.35509694
12.660795 -15.926389 0.35514528
12.272598 -16.227024 0.35513696
13.53413 -15.276757 0.35625675
13.172285 -15.546946 0.35568908
12.914327 -15.747684 0.35548818
14.432394 -14.57635 0.35805315
14.089001 -14.87363 0.3576172
13.768661 -15.121337 0.35697094
15.239264 -13.868237 0.35966331
14.909233 -14.135177 0.35862178
14.590955 -14.435453 0.35827181
15.840834 -13.566299 0.36405247
15.523835 -13.702596 0.36143714
16.960142 -12.538724 0.3681595
16.702156 -12.760807 0.36689809
16.407551 -13.13467 0.36686876
16.118107 -13.391529 0.36577994
17.584431 -12.123885 0.37282571
17.233704 -12.370268 0.37029764
16.963705 -12.571003 0.36854476
18.437527 -11.48286 0.37914106
18.156677 -11.707335 0.37710738
17.829895 -11.957188 0.37472984
19.063717 -11.031104 0.38446039
18.672182 -11.324217 0.38118738
19.472973 -10.77957 0.38850772
19.3002 -10.907968 0.38696888
12.053701 -16.337723 1.0640453
11.726852 -16.590961 1.0648106
11.447339 -16.811382 1.065912
12.906506 -15.691323 1.0647839
12.648366 -15.890416 1.0644221
12.265016 -16.179543 1.0640436
13.527736 -15.225851 1.0674337
13.14643 -15.515734 1.0658088
14.409535 -14.562552 1.0736755
14.03933 -14.845372 1.0708624
13.745287 -15.075143 1.0691649
15.267549 -13.917992 1.0827143
14.963808 -14.153683 1.0794835
14.621809 -14.407684 1.0758119
15.899914 -13.506573 1.0933681
15.497678 -13.755573 1.0860028
16.734035 -12.835586 1.1052866
16.38608 -13.126519 1.1003524
16.099167 -13.361572 1.0964592
17.607256 -12.168069 1.1216781
17.294834 -12.405011 1.1154643
16.969318 -12.671899 1.1099322
18.456356 -11.525084 1.1403513
18.201082 -11.720456 1.134568
17.843195 -11.993097 1.1267377
19.089651 -11.048304 1.1559393
18.693209 -11.354039 1.1462445
18.463072 -11.57064 1.1419182
19.961428 -10.38833 1.1793324
19.594193 -10.671194 1.1693268
19.300209 -10.910062 1.1619062
20.789228 -9.7597246 1.2036084
20.516993 -9.9729986 1.1955779
20.184319 -10.236352 1.1860775
21.664213 -9.091733 1.2313017
21.400883 -9.3093224 1.2231107
21.02388 -9.5994396 1.2112536
22.307049 -8.620491 1.2533413
21.911604 -8.9334307 1.2401321
21.670094 -9.1244688 1.2322506
23.145224 -7.9789605 1.283047
22.839689 -8.2280836 1.2723053
22.514233 -8.4877253 1.2609913
24.031916 -7.3157067 1.3165269
23.714153 -7.5658293 1.3045431
23.416109 -7.8087602 1.2936343
24.639296 -6.8700652 1.3405588
24.263481 -7.1608567 1.3258315
24.014795 -7.3879156 1.3167727
24.996473 -6.6071901 1.3550036
24.849716 -6.7304544 1.3492438
11.344473 -16.85804 1.7777472
12.057673 -16.286154 1.7728848
11.690638 -16.567234 1.7740363
11.374403 -16.852562 1.7788168
12.88351 -15.65606 1.7738885
12.587049 -15.887315 1.7733907
12.27693 -16.131733 1.7735856
13.758309 -14.998409 1.7806542
13.502954 -15.214741 1.7797931
13.121082 -15.49931 1.7767106
14.403037 -14.518059 1.7892257
14.031846 -14.816866 1.7854066
13.762811 -15.028947 1.7828897
15.253127 -13.885753 1.8046399
14.936531 -14.143211 1.7997072
14.615077 -14.38991 1.7944292
16.11096 -13.271408 1.8261743
15.880818 -13.481052 1.8225359
15.491464 -13.733018 1.8112314
16.738884 -12.771899 1.8421036
16.356287 -13.11132 1.8340399
16.099403 -13.349093 1.8297305
17.612162 -12.114578 1.8702151
17.242544 -12.393378 1.8578186
16.948524 -12.632889 1.849395
18.432314 -11.487156 1.9001517
18.160616 -11.699701 1.8900843
17.830654 -11.960498 1.8784435
19.31115 -10.817951 1.9365411
19.048229 -11.031002 1.9258183
18.671251 -11.323348 1.9104851
19.952829 -10.337207 1.9660456
19.570797 -10.640841 1.9489815
19.315378 -10.849917 1.9382358
20.667841 -9.7652311 1.9998757
20.443239 -9.9679127 1.9898757
20.163008 -10.209365 1.9772903
11.40676 -16.704311 2.4835806
11.284264 -16.813105 2.486249
12.045552 -16.225348 2.4812696
11.641443 -16.530298 2.4825346
11.409636 -16.735312 2.4869571
12.908714 -15.564038 2.4828119
12.539192 -15.84882 2.4814758
12.24361 -16.079653 2.4815536
13.773923 -14.926486 2.4938293
13.479803 -15.149482 2.4899385
13.130224 -15.410607 2.485863
14.186516 -14.589674 2.4986553
13.972208 -14.780139 2.4973691
20.793234 -9.7016172 2.0074487
20.672272 -9.8287935 2.0026119
21.68042 -9.0328293 2.0548348
21.382488 -9.2686005 2.0389497
21.015196 -9.5499945 2.019547
22.510218 -8.3696852 2.1011157
22.315363 -8.5675879 2.0913174
21.892914 -8.8826237 2.0670633
23.132177 -7.941381 2.1397612
22.775314 -8.217597 2.118351
22.497416 -8.4472942 2.1024446
24.011765 -7.2700195 2.1949413
23.682398 -7.5340409 2.1742909
23.380394 -7.7784524 2.155761
24.863783 -6.6323171 2.2513609
24.614151 -6.8247657 2.2347326
24.20435 -7.1520143 2.2081444
25.051201 -6.5012531 2.264308
24.86458 -6.6714797 2.252311
11.297239 -16.939495 2.5000277
14.608628 -14.264261 2.5069742
14.376635 -14.473256 2.5048807
14.076543 -14.721763 2.5009542
15.229057 -13.827711 2.5257404
14.869524 -14.111183 2.5170963
14.612194 -14.303385 2.5106368
16.103601 -13.163374 2.5538383
15.784821 -13.41588 2.5436811
15.464857 -13.664525 2.5339127
16.957026 -12.53255 2.5890107
16.709768 -12.721721 2.5787396
16.338383 -13.012066 2.5646236
17.596325 -12.051206 2.6187468
17.210636 -12.34578 2.6007254
16.961573 -12.560467 2.5914829
18.461002 -11.389313 2.6634285
18.088875 -11.678345 2.6437688
17.796146 -11.90486 2.6289577
19.288153 -10.758687 2.7117879
19.037064 -10.964423 2.6974795
18.68021 -11.236391 2.6766105
20.159958 -10.088323 2.7679634
19.905354 -10.297445 2.7517738
19.521088 -10.59861 2.7274227
20.759096 -9.6497078 2.8108554
20.440496 -9.894187 2.7883818
20.16338 -10.1192 2.7700336
21.653536 -8.981205 2.8783805
21.34038 -9.2226934 2.854562
21.011784 -9.4869547 2.8307254
22.526827 -8.3046398 2.9479203
22.233192 -8.5425863 2.9245238
21.878431 -8.8130226 2.896112
23.0404 -7.9258037 2.9917059
22.740774 -8.1721125 2.9670677
14.604968 -14.237885 3.230514
14.344847 -14.435061 3.2233129
13.969666 -14.718236 3.2140446
15.222347 -13.765216 3.2506297
14.842521 -14.057112 3.2378817
16.105885 -13.106568 3.2888758
15.720865 -13.388884 3.2706807
15.46218 -13.587127 3.260148
16.928925 -12.473639 3.3305359
16.672329 -12.678304 3.3174982
16.324249 -12.941211 3.2994187
17.808352 -11.812498 3.3846591
17.539307 -12.015962 3.3674281
17.190531 -12.289528 3.3469732
18.4466 -11.329054 3.4287343
18.057339 -11.625863 3.4015677
17.809441 -11.832191 3.3865285
19.283348 -10.689616 3.4920826
18.955408 -10.948939 3.4671624
18.650522 -11.183547 3.4443293
23.207638 -7.8073545 3.0064747
23.982229 -7.2142973 3.075007
23.625097 -7.4906526 3.0431416
23.34634 -7.7242179 3.0194016
24.857471 -6.5454397 3.1561759
24.535559 -6.8043041 3.1263463
24.23138 -7.0426927 3.0983598
25.340664 -6.2078052 3.2034481
25.072575 -6.3994966 3.1772671
11.484926 -16.534088 3.9131818
12.273883 -15.932622 3.9093959
11.995076 -16.162937 3.912534
11.663659 -16.418892 3.914861
12.721125 -15.616448 3.9151928
12.486688 -15.79631 3.9140472
19.379742 -10.630391 3.5009093
20.170649 -10.020605 3.5672336
19.860075 -10.258304 3.5404413
19.53187 -10.513162 3.5132287
21.008636 -9.3662453 3.6431496
20.738104 -9.5858974 3.6185939
20.388643 -9.85746 3.5869191
21.616114 -8.9234486 3.7039235
21.279928 -9.1830664 3.6709044
21.009996 -9.3867435 3.6446753
22.509024 -8.247488 3.7968781
22.18391 -8.4933996 3.7623727
21.863897 -8.754137 3.7302012
23.378572 -7.5771537 3.8924332
23.080103 -7.8125782 3.859333
22.712421 -8.0931101 3.8188717
23.979847 -7.1274099 3.9622917
23.560522 -7.447032 3.9136405
24.283529 -6.8762403 3.9973602
24.208412 -6.9558601 3.9893675
24.859049 -6.4542723 4.0678544
24.473524 -6.7544308 4.0211892
25.703726 -5.8090854 4.1737585
25.375996 -6.0596743 4.132225
25.073463 -6.29954 4.0946817
26.552729 -5.164681 4.2843585
26.297642 -5.3593669 4.2507982
25.933371 -5.6435146 4.2035933
26.742916 -5.0272503 4.3098741
13.844728 -14.681375 4.6588864
14.606341 -14.166246 4.69767
14.333861 -14.406541 4.6920028
14.00431 -14.728008 4.6920476
15.454029 -13.52055 4.7405705
15.191494 -13.721484 4.7262278
14.794432 -14.027843 4.7069478
16.080055 -13.052082 4.7814965
15.711657 -13.333844 4.7576303
15.459861 -13.559524 4.7475176
16.957388 -12.379883 4.847271
16.55765 -12.693547 4.8168406
16.317013 -12.899741 4.8021173
17.785889 -11.749974 4.92136
17.526234 -11.972691 4.9003425
17.156963 -12.259171 4.8683038
18.355879 -11.345492 4.9819727
18.052383 -11.596275 4.9536204
18.50424 -11.332112 5.009562
