# .PCD v0.7 - Point Cloud Data file format
VERSION 0.7
FIELDS x y z
SIZE 4 4 4
TYPE F F F
COUNT 1 1 1
WIDTH 1327
HEIGHT 1
VIEWPOINT 0 0 0 1 0 0 0
POINTS 1327
DATA ascii
6.2420721 15.665205 -0.57352203
6.280158 15.418816 -0.57394266
6.536993 15.08802 -0.57806689
6.6730843 14.879625 -0.58025509
6.9121876 14.583197 -0.58422941
7.2227039 14.222332 -0.58950871
7.3547812 14.007618 -0.59175479
7.6279449 13.684069 -0.59655899
7.823658 13.392155 -0.60003203
7.9837618 13.155254 -0.60292906
8.3054943 12.765684 -0.60888427
8.4689999 12.514973 -0.61195874
8.5071936 12.519716 -0.6126895
8.6565456 12.223921 -0.61555761
8.869585 11.874481 -0.61971778
9.0279722 11.634899 -0.62286949
9.2883463 11.274961 -0.6281395
9.466054 11.01647 -0.63180208
9.4861021 11.018995 -0.6322034
9.6702051 10.764885 -0.63607234
9.9685583 10.378096 -0.64243829
10.133103 10.140686 -0.6460343
10.366735 9.8474598 -0.65120387
10.608361 9.5292511 -0.65665078
10.773793 9.3239307 -0.66043317
11.006299 9.0824356 -0.66575938
14.623611 4.3313837 -0.76401013
14.890215 3.99403 -0.77228123
15.05562 3.7619963 -0.7775951
15.308851 3.4764395 -0.78549874
15.44116 3.2028265 -0.79034472
6.2225723 15.385876 0.34584862
6.4733829 15.049212 0.3338725
6.62924 14.836594 0.3263647
6.9039154 14.483501 0.31390792
7.1079559 14.225189 0.30483431
7.2998857 13.965324 0.29582751
7.5723047 13.609961 0.28355855
7.7512007 13.347271 0.27463353
7.7729483 13.353348 0.27474272
7.9524841 13.099602 0.26616305
8.2558527 12.712667 0.2530722
8.4006929 12.510305 0.24631935
8.6301117 12.223053 0.2367385
8.9011097 11.877705 0.22532648
9.0776882 11.631481 0.21730721
9.3317089 11.30596 0.20675153
9.5726862 10.996838 0.1968115
9.7212934 10.79512 0.19040519
10.015767 10.422052 0.17862183
10.205901 10.157101 0.17036319
10.23544 10.160892 0.17043543
10.410658 9.9023476 0.162476
10.689032 9.54356 0.15148783
10.84154 9.3092136 0.14440984
11.021131 9.1070957 0.13831854
14.785826 4.2438936 0.0068027675
14.90476 4.0305862 0.0015806854
15.069248 3.7954054 -0.0040429235
15.150383 3.7783041 -0.0042413175
15.313938 3.5004635 -0.010861754
15.589739 3.1628141 -0.0185574
15.795465 2.9022856 -0.024418771
16.030357 2.6072502 -0.030931085
16.263155 2.285409 -0.03801927
16.403255 2.0739193 -0.042651206
16.613312 1.7072878 -0.050702929
16.760239 1.4247408 -0.056880265
16.989304 1.1047602 -0.063492686
17.220665 0.80908966 -0.069428116
17.383066 0.57303524 -0.074178249
17.679152 0.18333626 -0.081758946
17.862061 -0.066308975 -0.086567253
17.88876 -0.064371109 -0.086393684
18.064949 -0.3241415 -0.091369808
18.370365 -0.70260906 -0.098257154
18.537024 -0.93978977 -0.10261965
18.740892 -1.1638451 -0.10642877
19.052284 -1.5590115 -0.11327946
19.21314 -1.7677956 -0.11684737
19.468204 -2.1097784 -0.12263051
19.683594 -2.3825216 -0.12709945
19.850836 -2.6160192 -0.13095
20.150337 -2.9987988 -0.13700384
20.325874 -3.2587562 -0.14120188
20.353971 -3.2548566 -0.1409612
20.547832 -3.5136466 -0.14494815
20.844379 -3.8835025 -0.15043412
6.1948671 15.346893 1.263731
6.4274702 15.036489 1.2452962
6.575469 14.834301 1.2333896
6.8782673 14.444571 1.2108449
7.1037521 14.164814 1.1949372
7.2598133 13.951809 1.1828451
7.5593529 13.563013 1.1611769
7.7006264 13.351505 1.1493002
7.9309406 13.060232 1.1335553
8.2167349 12.69146 1.1138527
8.3722248 12.480047 1.102625
8.618474 12.17079 1.0866883
8.8826551 11.845995 1.0702957
9.03934 11.612534 1.0582466
9.3280659 11.251081 1.0405774
9.4919977 10.986858 1.0271293
9.5250196 10.995506 1.02818
9.6969481 10.761385 1.0169035
10.00993 10.368649 0.99873996
10.155516 10.16284 0.98907804
10.376407 9.8816223 0.9765265
10.674609 9.5006123 0.95987523
10.826492 9.2865677 0.95043111
11.005657 9.0948715 0.9429661
14.288721 4.7791195 0.79405105
14.39098 4.6072645 0.788674
14.431461 4.6113615 0.79007006
14.588686 4.3518171 0.78227365
14.895821 3.9721861 0.77357018
15.040613 3.7640972 0.76829791
15.300859 3.4577065 0.76234996
15.588923 3.1151094 0.7559948
15.752831 2.9084806 0.7520808
16.010843 2.5681105 0.74561644
16.231768 2.2537441 0.73939455
16.367701 2.0437546 0.73507226
16.677597 1.6492901 0.72920096
16.815535 1.4385853 0.72531676
16.895676 1.4252195 0.72756374
17.05162 1.1432543 0.72168767
17.317831 0.79976559 0.71752512
17.489553 0.56486511 0.71455419
17.734783 0.2498312 0.7114464
17.999525 -0.071871758 0.70910954
18.143169 -0.28538513 0.70660603
18.433994 -0.63233376 0.704983
18.604082 -0.92545033 0.701069
18.688431 -0.93828106 0.70380604
18.832584 -1.1750841 0.70115256
19.120478 -1.5590072 0.699242
19.266361 -1.7561116 0.6983546
19.511978 -2.050036 0.69840384
19.782536 -2.3917217 0.69818854
19.944012 -2.6369305 0.69697833
20.198929 -2.9363856 0.69804418
20.460026 -3.2641582 0.69877779
20.602221 -3.479579 0.69828665
20.909111 -3.8656878 0.69979835
21.038372 -4.1168671 0.69816601
21.179729 -4.132256 0.7034235
21.290998 -4.3372507 0.70249569
14.238707 4.8125992 1.5709639
14.343931 4.6229105 1.5633627
14.501213 4.5832663 1.5694863
14.620554 4.3336411 1.5588822
14.925112 3.9748526 1.5518724
15.03747 3.7518473 1.5433667
15.314749 3.4458675 1.5395815
15.573095 3.1289244 1.5344934
15.707512 2.8762445 1.5265279
16.042847 2.5351057 1.5259529
16.271944 2.2919312 1.5253752
16.432373 2.024106 1.5193939
16.683105 1.6438961 1.5130295
16.801598 1.3797274 1.5053905
16.934031 1.416563 1.5161953
17.048166 1.1740208 1.5099146
17.390038 0.76548576 1.5099459
17.4939 0.5130291 1.5032098
17.758757 0.26489067 1.507992
18.004148 -0.084736824 1.5066079
18.079954 -0.24078751 1.5038818
18.265707 -0.50406361 1.5035822
6.2004042 15.35243 2.1874318
6.4350519 15.071051 2.1644313
6.58564 14.797871 2.1408956
6.8895082 14.441 2.1127357
7.0328503 14.171265 2.0898485
7.1586647 14.148506 2.0905266
7.2821541 13.947056 2.0740561
7.5353575 13.576088 2.0446815
7.6956625 13.327988 2.0250635
7.9316111 13.040512 2.0040014
8.2727613 12.667995 1.9782512
8.3780832 12.449856 1.9607978
8.6231985 12.180717 1.942915
8.943428 11.832447 1.9204297
9.0457935 11.582693 1.9007039
9.31569 11.285954 1.8823497
9.4842367 10.971556 1.8594251
9.5831366 10.968618 1.8625467
9.730567 10.736744 1.846806
10.04178 10.378685 1.8259425
10.174538 10.107141 1.8067219
10.41704 9.8631153 1.7944615
10.672797 9.5295525 1.7752943
10.851344 9.2899685 1.761713
10.98909 9.1378307 1.7542388
18.317247 -0.36532497 1.5140491
18.394205 -0.55275249 1.5101423
18.787876 -0.99562836 1.5163895
18.880491 -1.2273769 1.5121424
19.126858 -1.5505929 1.5149014
19.291584 -1.7919455 1.5159354
19.551291 -2.074789 1.5223922
19.81671 -2.4407964 1.5262395
19.990944 -2.6752939 1.5293529
20.234329 -3.0046811 1.5341496
20.614033 -3.4416347 1.545454
20.912401 -3.8223548 1.5537232
8.3745251 12.313683 2.8093863
8.6031513 12.07155 2.7897286
8.7669783 11.812183 2.7652574
8.9020748 11.777946 2.7675185
8.9929667 11.547651 2.7436633
9.3015785 11.175598 2.7136676
9.4299107 10.973665 2.6957586
9.6751032 10.677732 2.67309
10.001595 10.329126 2.6493647
10.112741 10.087383 2.6269171
10.389221 9.7771072 2.6064458
10.62929 9.5077686 2.5892646
10.774957 9.263113 2.5698857
11.057323 8.9002724 2.5459626
11.226923 8.6099606 2.5238564
11.264366 8.6375771 2.5293612
11.409578 8.3967381 2.5118728
11.766822 7.9876919 2.4903476
11.871196 7.7752342 2.4742072
11.986176 7.7791519 2.4825251
12.136518 7.4728069 2.4599218
12.431051 7.132719 2.4445221
12.533888 6.9019871 2.4276423
12.81673 6.581275 2.4151685
13.108495 6.2542324 2.4035902
13.228733 6.0547056 2.392657
13.478079 5.6795359 2.374645
13.631226 5.4480286 2.3639479
13.869978 5.1531792 2.354641
14.167921 4.7890835 2.344414
14.320255 4.5842323 2.3378873
14.580347 4.2652626 2.3305178
14.877954 3.9385805 2.3265584
14.985542 3.7493496 2.3191085
15.312431 3.3459435 2.3128119
15.548861 3.0867357 2.3118711
15.664089 2.8400793 2.3016615
15.984415 2.494276 2.3026443
16.053419 2.2427082 2.2887449
16.254978 2.2331924 2.3068409
16.336243 2.0253439 2.2981098
16.661074 1.5978327 2.2960038
16.757168 1.3813524 2.288866
17.035704 1.0835285 2.2939253
17.334274 0.74945259 2.2991378
17.426275 0.5348177 2.2931969
17.731638 0.17815876 2.2991962
17.930462 -0.093385696 2.3010254
18.0798 -0.29010296 2.3033767
18.379738 -0.63494968 2.3120494
18.83017 -1.2768564 2.3196576
19.080835 -1.5705285 2.3287938
19.148584 -1.7616291 2.3251348
19.51775 -2.142643 2.3431959
19.787327 -2.5010743 2.352953
19.902868 -2.6810141 2.3561561
20.213007 -3.0533533 2.3709917
20.322397 -3.2943802 2.3712616
20.578609 -3.492044 2.3897443
20.87718 -3.8798714 2.4048338
5.9786339 15.493723 3.1289136
6.1635218 15.247625 3.102221
6.3138523 14.997063 3.0740557
6.3835926 15.004623 3.0772686
6.5383329 14.744789 3.0484519
6.8390903 14.377281 3.0109291
6.9652519 14.155144 2.986623
7.224741 13.876348 2.9602146
7.4634657 13.558474 2.9285347
7.6417637 13.282934 2.9004369
7.9016218 12.950609 2.8689585
8.1741476 12.663233 2.8443367
8.2930965 12.475277 2.8259912
8.4824429 12.339645 2.8174989
13.191886 5.9026842 3.1611214
13.426031 5.617835 3.1501033
13.584539 5.4083643 3.1411636
13.861435 5.0556517 3.128391
14.067703 4.8008451 3.1206181
14.257784 4.5429878 3.1115696
14.54793 4.1814175 3.1028101
14.712202 3.9225206 3.0923657
14.744303 3.9256697 3.0964069
14.919418 3.6930141 3.0909781
15.215544 3.302906 3.0834231
15.365572 3.0894432 3.0785239
15.593359 2.7957315 3.0753474
15.883783 2.4244013 3.0728595
16.013103 2.230567 3.0694733
16.216164 1.9502535 3.0672598
7.2384481 13.693701 3.83408
7.4121704 13.474356 3.8079054
7.5628147 13.260895 3.7818549
7.873992 12.860792 3.7354863
8.0488415 12.639864 3.7105834
8.0735054 12.64126 3.7122505
8.2534676 12.372475 3.6807034
8.5277596 12.026682 3.6434429
8.7147484 11.765556 3.6146991
8.9321918 11.49572 3.5872965
9.1919241 11.158569 3.5530365
9.3463202 10.945639 3.5313118
9.6367626 10.578468 3.4965646
9.8658371 10.28397 3.4692192
10.01156 10.090992 3.4515471
10.325603 9.6863861 3.4161799
10.493782 9.4502296 3.3950169
10.708703 9.1832161 3.3738837
10.976929 8.8374195 3.3466573
11.144968 8.6023731 3.3276234
11.380114 8.2874184 3.3039687
11.64634 7.9668808 3.2831919
11.788727 7.7624435 3.2681038
12.096601 7.376173 3.2443998
12.327962 7.0977116 3.2291346
12.463597 6.8855324 3.2142932
12.775745 6.4932966 3.1939754
12.948805 6.2613544 3.1815588
13.144361 6.0071049 3.1693828
16.010456 2.3029127 3.0762765
16.088703 2.1844292 3.074245
16.305475 1.8768368 3.0714023
16.52523 1.605361 3.0731757
16.680586 1.3676691 3.0708156
16.970968 0.98857307 3.0736766
17.158783 0.72791862 3.0749195
17.192045 0.73195171 3.0796003
17.365803 0.47114754 3.0798893
17.669384 0.090337753 3.0880141
17.830309 -0.14637566 3.0901153
18.080595 -0.44335175 3.1001773
18.318655 -0.75270557 3.108469
18.471548 -0.9648695 3.1133668
18.747126 -1.3364658 3.124126
18.90604 -1.6168008 3.126265
18.98473 -1.6349673 3.1358736
19.138399 -1.842658 3.1430755
19.458267 -2.2419853 3.161392
19.57114 -2.4434934 3.1643445
19.654598 -2.4637561 3.1747704
19.813274 -2.7135544 3.1817987
20.119764 -3.1007247 3.2021966
20.257029 -3.3175554 3.2093215
20.532675 -3.6531005 3.230252
20.800789 -3.9807959 3.2514172
20.92782 -4.1592708 3.260637
21.216169 -4.5284042 3.2842875
21.462019 -4.8176842 3.3063817
21.584358 -5.0161996 3.3153353
21.903051 -5.4271154 3.344234
5.9022141 15.44005 4.0574131
6.0746832 15.213802 4.0272551
6.2424278 14.985991 3.9969366
6.4628944 14.708166 3.9612362
6.7393351 14.348293 3.9152863
6.9172115 14.110779 3.8852837
7.0936871 13.901896 3.8602498
10.08597 9.8483734 4.2549648
10.3846 9.6271744 4.2452221
10.502679 9.4329796 4.2229414
10.612763 9.440443 4.2353811
10.724293 9.1918068 4.2036266
11.029196 8.8260403 4.1725712
11.140887 8.591074 4.1444969
11.401748 8.2713757 4.1191149
11.657239 7.9892616 4.1006365
11.818211 7.720665 4.0747356
12.082022 7.400835 4.0534639
12.259337 7.0976963 4.025733
12.347691 7.0846462 4.0343132
12.496202 6.8782349 4.0196276
12.791596 6.5012188 3.997175
12.910489 6.2554369 3.9741848
13.008516 6.2578363 3.9869654
13.148482 5.9858027 3.96365
13.425392 5.6015949 3.9422095
13.55481 5.4056158 3.9304817
13.852222 5.0367546 3.9170649
14.103928 4.755784 3.911505
14.245548 4.5462284 3.9018624
14.548691 4.2078657 3.8980067
14.724049 3.9090328 3.8826492
14.811722 3.8928471 3.8931043
14.929958 3.6835279 3.8826292
15.230579 3.3104029 3.8783052
15.364717 3.0306692 3.8626845
15.473589 3.0697851 3.8838217
15.648869 2.7668629 3.8726585
15.945045 2.4283915 3.876653
15.984941 2.2351007 3.8597968
16.30471 1.9135542 3.871959
16.589994 1.5831642 3.8792613
16.710056 1.3437119 3.8718708
16.99058 1.0281849 3.8827178
17.19249 0.71966934 3.8828046
17.405607 0.44544983 3.8895781
17.692781 0.1069746 3.9032233
17.787378 -0.12690639 3.8962286
17.942858 -0.12768555 3.9219124
18.07288 -0.35466766 3.9223564
18.35878 -0.7728529 3.9322302
18.464994 -0.97963619 3.9319441
18.756413 -1.3288603 3.9517095
18.8955 -1.6281013 3.9507329
19.012461 -1.5908203 3.9738615
19.123636 -1.8718033 3.9706166
6.5671453 14.526274 4.862402
6.7413626 14.335428 4.8353176
6.8864145 14.117403 4.8015795
7.1742477 13.770126 4.7521734
7.3248224 13.467752 4.7033634
7.4264345 13.471539 4.710948
7.5605507 13.217863 4.6712341
7.8674173 12.869209 4.6260395
8.002594 12.647837 4.5936069
8.0953598 12.630003 4.5971079
8.2423363 12.378626 4.5605764
8.5558739 11.999117 4.5134268
8.6882076 11.776867 4.4824095
8.9446068 11.468269 4.446208
9.2365561 11.13652 4.4098253
9.345911 10.918947 4.3795204
9.6659832 10.567345 4.3444223
9.7737522 10.285021 4.3033333
9.9297466 10.307552 4.3220158
10.05079 10.055824 4.2885294
10.277666 9.8023891 4.2655163
19.270914 -1.9506202 3.9897883
19.47016 -2.2094517 4.0045691
19.54879 -2.4880977 3.9974806
19.75363 -2.4851489 4.0334244
19.842228 -2.7530518 4.0298605
20.150721 -3.0863194 4.0610781
20.244307 -3.2967334 4.0635939
20.399462 -3.3153653 4.0897675
20.525177 -3.6098509 4.0933609
20.753695 -3.9262943 4.1145649
5.8778276 15.477877 5.0126648
6.0794783 15.193924 4.9669018
6.2198849 14.951828 4.9265213
6.4530182 14.710175 4.8920164
9.0802317 11.202578 5.2770023
9.0716419 11.095922 5.2530489
9.1833639 11.141375 5.274539
9.3316736 10.909506 5.2404518
9.6082039 10.699768 5.2256651
10.085981 10.012836 5.1347637
10.512179 9.4893436 5.0770826
10.591384 9.4345627 5.0755215
10.713585 9.1072426 5.0240526
11.053827 8.8027878 5.0058327
11.134847 8.5496941 4.9658194
11.396371 8.2173729 4.9347315
11.615575 7.9465008 4.9114008
11.831558 7.713623 4.8962564
12.091556 7.365551 4.8665276
12.277796 7.0860081 4.8406029
12.499047 6.8173046 4.8231649
12.713745 6.5331182 4.8029737
12.863503 6.2593765 4.7761278
13.197387 5.8907452 4.7621174
13.478607 5.5841532 4.7528219
13.573124 5.3703651 4.7311668
13.842926 5.0771761 4.7251787
13.998531 4.7433062 4.6950808
14.082029 4.7695589 4.7132254
14.221191 4.5267134 4.6967802
14.517317 4.1361275 4.6842022
14.68512 3.8899975 4.674242
15.787996 2.6692753 4.6883211
15.921806 2.4617949 4.68363
17.118319 0.7693882 4.6894207
17.373478 0.47290134 4.7040567
18.735819 -1.397016 4.7776756
18.786116 -1.5963244 4.768898
18.989634 -1.5853014 4.8118124
6.2551336 14.856281 5.8564034
6.4774532 14.604189 5.8135748
6.7754173 14.356215 5.7779903
6.9170341 14.088966 5.727212
7.1812735 13.737049 5.6673622
7.439167 13.443733 5.621479
7.5585976 13.184309 5.5727587
7.8481398 12.890821 5.5315504
8.0019112 12.601088 5.4802332
8.2608633 12.342674 5.4464712
8.5648165 11.980583 5.3951883
8.6580095 11.76553 5.3570127
8.9068518 11.493782 5.3225021
9.2047358 11.242067 5.2985067
11.46263 7.8996983 5.7128935
11.712602 7.6242561 5.6920357
11.990788 7.2708759 5.6603823
12.145316 7.051115 5.638793
12.398276 6.7283974 5.6132612
12.62638 6.4493933 5.594161
12.775023 6.2222652 5.5733833
13.066579 5.8692083 5.5536938
13.256186 5.573555 5.5288897
13.288202 5.5803652 5.5361576
13.453405 5.3282318 5.5171614
13.771782 4.9375257 5.5015545
13.906015 4.7271824 5.4871655
14.152107 4.4477959 5.4827242
14.446562 4.0794516 5.4732504
14.57481 3.8841562 5.4637775
14.874235 3.5398493 5.4638033
15.121374 3.2357359 5.4621048
15.260014 3.0075808 5.4524307
15.557735 2.6404428 5.4544687
15.718855 2.382885 5.4471054
15.806131 2.3684397 5.4635468
15.934542 2.1351786 5.4545135
16.245525 1.752387 5.4633322
16.378201 1.5237379 5.4581699
16.602797 1.2389307 5.4663906
16.908689 0.88657951 5.4847975
17.040363 0.66013622 5.4832792
17.320242 0.31959629 5.5013428
17.545551 0.062935829 5.5195627
17.657705 -0.17271328 5.5156069
5.8728676 15.416124 5.9616051
6.0630865 15.193764 5.9220562
6.1678381 15.003113 5.8846445
6.3565655 14.935364 5.8818178
8.2302485 12.136835 6.2968597
8.3525276 11.947832 6.2622967
8.3862648 11.952816 6.2673588
8.5851049 11.671904 6.2190285
8.8564634 11.342924 6.1682568
9.0070581 11.114382 6.1293135
9.2517223 10.819862 6.0866928
9.5383348 10.48572 6.041153
9.6892967 10.2393 6.0008669
9.9427557 9.9352417 5.9614801
10.208062 9.6149254 5.9213667
10.34775 9.4017296 5.8905764
10.66027 9.002737 5.8420906
10.80822 8.7634602 5.8083553
10.886628 8.749588 5.8168716
11.030259 8.5081215 5.783246
11.320621 8.1283417 5.7418718
11.466575 7.9337273 5.7210817
11.622097 7.7816296 5.7120972
17.589653 0.030879974 5.5256462
17.730011 -0.21341896 5.5272722
18.023848 -0.5543108 5.5540867
18.147364 -0.82700157 5.5506229
18.298822 -0.825737 5.586587
18.42168 -1.097991 5.5844698
18.634243 -1.426311 5.598506
18.811224 -1.6727238 5.614397
19.084658 -1.9638944 5.6501751
19.346775 -2.3036461 5.6797657
19.451271 -2.510901 5.6852741
19.797922 -2.8908525 5.7350883
19.937672 -3.1567287 5.7458296
20.03039 -3.1795988 5.7667427
20.145288 -3.3964214 5.7767992
20.440908 -3.7693052 5.8197565
7.1839075 13.537247 6.5518475
7.217555 13.412193 6.522296
7.4990854 13.033691 6.4511423
7.761467 12.756618 6.4058943
7.8718491 12.588512 6.3740854
8.1090946 12.314344 6.3289509
-8.1889277 13.136675 -2.0089183
-8.4743233 12.902121 -1.9954864
-7.3162737 13.802765 -2.0489221
-7.6344976 13.553473 -2.0334899
-7.9529152 13.302305 -2.0183465
-6.4666843 14.434576 -2.0901465
-6.7013102 14.26309 -2.0786824
-7.0821524 13.95797 -2.0586348
-6.3128958 14.565733 -2.099153
-6.4631987 14.412092 -2.0885427
-13.496778 9.230444 -1.8638396
-13.749663 9.0284538 -1.8601843
-13.96415 8.8706989 -1.8581129
-12.877927 9.6845112 -1.8722178
-13.226703 9.4108734 -1.8661628
-13.495725 9.209734 -1.8625574
-11.994354 10.35659 -1.8896846
-12.333056 10.087713 -1.8817594
-12.647872 9.845808 -1.8754386
-11.157369 10.994596 -1.9106957
-11.413632 10.790735 -1.9033136
-11.847032 10.458769 -1.8924508
-10.531782 11.468458 -1.9289382
-10.961598 11.128059 -1.9152153
-9.6358595 12.025135 -1.9505802
-9.9624224 11.786772 -1.9398847
-10.270712 11.598511 -1.932649
-9.0375099 12.461075 -1.9717641
-9.4245443 12.161148 -1.956643
-8.6180639 12.763868 -1.987489
-8.8221416 12.612284 -1.9794134
-15.176943 8.0116978 -1.1076097
-14.348027 8.6119518 -1.1091223
-14.689816 8.3565502 -1.1079848
-14.997427 8.126564 -1.1072891
-13.473894 9.2840958 -1.1146597
-13.750745 9.0666752 -1.1124793
-14.136762 8.7661057 -1.1099559
-12.871087 9.7351742 -1.119823
-13.274132 9.4255352 -1.115995
-12.048004 10.330074 -1.1283184
-12.381713 10.106272 -1.1251485
-12.638545 9.907093 -1.1220808
-11.197961 10.967226 -1.1403774
-11.399352 10.780449 -1.1361518
-11.75833 10.466967 -1.1295693
-11.120362 10.860504 -1.1361682
-9.663929 12.144302 -1.1694252
-10.006423 11.849243 -1.1611683
-10.233899 11.586416 -1.1536028
-8.8323517 12.784391 -1.1884767
-9.1509657 12.545908 -1.1811647
-9.4576483 12.316986 -1.1744109
-7.9596415 13.44166 -1.2102776
-8.2155685 13.245399 -1.2035438
-8.5989008 12.957981 -1.1940089
-7.3378448 13.91379 -1.2273371
-7.7185125 13.622593 -1.2166965
-6.4589624 14.580986 -1.2532525
-6.8455 14.284878 -1.2415121
-7.1231041 14.063963 -1.2329943
-5.6033297 15.228662 -1.2803748
-5.9079399 14.995424 -1.2704229
-6.2480078 14.73698 -1.2596289
-5.4309444 15.357098 -1.2859926
-15.201387 8.0280437 -0.36290193
-14.329736 8.66465 -0.36336705
-14.706509 8.3804111 -0.36306331
-14.975896 8.1762695 -0.36294377
-13.514227 9.2796841 -0.36465117
-13.798941 9.0626183 -0.36411917
-14.125849 8.8120728 -0.36361265
-12.636682 9.9489441 -0.36696646
-12.906929 9.7448788 -0.36616012
-13.25142 9.4751511 -0.36524972
-11.998762 10.428572 -0.36925441
-12.414274 10.112349 -0.36771196
-11.150066 11.064272 -0.37303549
-11.490537 10.808945 -0.37142202
-11.796936 10.575335 -0.37006906
-10.273139 11.734697 -0.37783307
-10.568768 11.505102 -0.37612349
-10.928438 11.172089 -0.37411925
-9.6780901 12.1775 -0.38157773
-10.074908 11.878365 -0.37903881
-8.814023 12.822996 -0.38767648
-9.1801672 12.552814 -0.38500381
-9.438035 12.35499 -0.38318491
-7.9391441 13.482874 -0.39464191
-8.2305231 13.263794 -0.3922455
-8.5839891 12.991877 -0.38942653
-7.0988245 14.131329 -0.40206152
-7.3609047 13.927198 -0.39968127
-7.712265 13.652222 -0.39657345
-6.4821835 14.592829 -0.40790099
-6.834796 14.320713 -0.40451294
-7.0965691 14.117783 -0.40205655
-5.6113892 15.252661 -0.4167192
-5.9651604 14.984512 -0.41306382
-6.2568631 14.765171 -0.41012239
-5.0614643 15.67782 -0.42263433
-5.4006376 15.413368 -0.41895202
-14.975162 8.2113247 0.38347441
-15.244625 8.0208683 0.38352102
-14.338601 8.6958427 0.38479275
-14.74096 8.386795 0.38382018
-13.495679 9.3241901 0.3869099
-13.843111 9.0659771 0.38595927
-14.138977 8.839777 0.38505906
-12.614913 9.9970894 0.39057761
-12.923566 9.768034 0.38939977
-13.252756 9.5032921 0.38762575
-12.012929 10.451977 0.39348853
-12.413761 10.139925 0.39122152
-11.188501 11.065798 0.39787471
-11.520459 10.817547 0.3959828
-11.774779 10.624008 0.39450014
-10.287027 11.761705 0.40435869
-10.612953 11.51067 0.40193373
-10.926336 11.207088 0.39772636
-9.4364319 12.394339 0.4105432
-9.7063761 12.194071 0.40852052
-10.053064 11.930243 0.40581125
-8.8215952 12.855194 0.41561317
-9.1948586 12.578772 0.41260171
-9.4327383 12.377552 0.40994316
-7.9511518 13.516722 0.42373616
-8.2889318 13.255924 0.42036718
-8.5912333 13.022053 0.41742009
-7.0757608 14.185934 0.43277884
-7.3866978 13.949417 0.42952991
-7.7134886 13.692303 0.42591995
-6.4726892 14.640245 0.43920571
-6.8766985 14.334965 0.43483657
-5.5936437 15.310436 0.44939196
-5.9690237 15.024906 0.44498688
-6.2411637 14.814764 0.44175428
-4.7514043 15.956053 0.45986384
-5.0704002 15.708044 0.45572472
-5.387507 15.459225 0.45159847
-4.1710491 16.393642 0.46716481
-4.5483923 16.105282 0.46226233
-14.990152 8.2459126 1.1344024
-15.274527 8.0428181 1.1343437
-14.117062 8.9092751 1.1389108
-14.337916 8.7237225 1.1364568
-14.730562 8.429924 1.1346691
-13.496879 9.3689194 1.143195
-13.846865 9.0942268 1.1396972
-14.114598 8.8869648 1.1374785
-12.626421 10.025955 1.1523253
-12.952949 9.7736645 1.1482379
-13.237377 9.5518284 1.1448132
-11.775031 10.667376 1.1638603
-12.032979 10.471251 1.1600053
-12.414353 10.184912 1.1549085
-11.168164 11.103014 1.1723118
-11.541848 10.838989 1.1672431
-10.299189 11.783081 1.1901996
-10.645862 11.521639 1.1834083
-10.957914 11.223339 1.17355
-9.4160242 12.451237 1.2094954
-9.7234831 12.21862 1.2025108
-10.063495 11.959543 1.1949797
-8.8111439 12.89999 1.2235892
-9.214323 12.599766 1.214002
-7.9618578 13.550581 1.246595
-8.3062334 13.281197 1.2366397
-8.5776348 13.073366 1.2293187
-7.0882111 14.217485 1.2722977
-7.44279 13.946341 1.2615873
-7.698616 13.744133 1.2536087
-6.2385921 14.863207 1.2991148
-6.4953647 14.666567 1.2907279
-6.8855534 14.365854 1.2781453
-5.6465178 15.317915 1.319257
-5.9988203 15.045008 1.3070189
-4.73138 16.018801 1.3519155
-5.1267281 15.71133 1.3372544
-5.4032164 15.491669 1.3268794
-3.9192138 16.63822 1.3823373
-4.1762791 16.436678 1.3721929
-4.5307527 16.166086 1.3589051
-3.6920824 16.806408 1.3907654
-14.96839 8.2946186 1.8906779
-15.32659 8.0414391 1.8907559
-14.093447 8.9698467 1.8989708
-14.389169 8.7308369 1.8946958
-14.756456 8.4494152 1.8914671
-13.496252 9.4054413 1.9051833
-13.878678 9.1180401 1.9002109
-12.619026 10.072445 1.920733
-13.006275 9.7782078 1.9133074
-13.278808 9.5533962 1.9069567
-11.794558 10.702316 1.9399419
-12.088838 10.472418 1.9321792
-12.404847 10.226677 1.9244418
-10.918797 11.36549 1.9642327
-11.163191 11.13859 1.9530098
-11.532722 10.88611 1.9453659
-10.277804 11.846504 1.9844179
-10.665223 11.549217 1.9713359
-10.914019 11.342838 1.9618275
-9.4632521 12.451969 2.0126917
-9.7459717 12.242147 2.002548
-10.075574 11.997637 1.9911559
-9.348053 12.512686 2.0145042
-9.392333 12.518921 2.0167441
-8.5783081 13.118584 2.0483024
-8.8336926 12.924984 2.0375278
-9.2183342 12.641375 2.0226419
-7.9574766 13.596794 2.0767565
-8.343153 13.29421 2.0583179
-7.111537 14.243635 2.1179881
-7.4643621 13.970234 2.1000299
-7.7405596 13.744093 2.0851009
-6.2571959 14.900957 2.1633947
-6.5509248 14.66416 2.146348
-6.8690548 14.426132 2.1301248
-5.3785019 15.566147 2.212255
-5.6484032 15.359276 2.1966746
-5.9971342 15.084944 2.1762111
-4.7426105 16.048649 2.2497158
-5.1590691 15.732973 2.2250574
-5.3772306 15.537161 2.2092562
-3.9055104 16.690214 2.3019862
-4.2511196 16.425005 2.2800741
-4.5427127 16.193228 2.2610524
-3.4518182 17.065157 2.3341851
-3.6506796 16.876268 2.3174536
-15.600169 7.9864635 2.6672409
-14.955589 8.331955 2.6539679
-15.337167 8.0467548 2.6522098
-14.095231 8.9700451 2.6621394
-14.425808 8.7270107 2.6585512
-14.743952 8.4882183 2.6552825
-13.255985 9.6236629 2.6802034
-13.477277 9.4349995 2.672899
-13.867573 9.1357117 2.6650457
-12.638827 10.06875 2.6930819
-13.001746 9.8032513 2.684689
-13.253304 9.6009922 2.6772175
-11.765455 10.736094 2.7214539
-12.063102 10.508135 2.7110529
-12.378309 10.263166 2.7002542
-10.914199 11.384157 2.7549326
-11.166844 11.149103 2.7389596
-11.555987 10.897474 2.729413
-10.293641 11.852453 2.7825963
-10.672925 11.55714 2.7641788
-9.4138937 12.51725 2.8269269
-9.7543125 12.253475 2.8082469
-10.076567 11.997879 2.7904913
-8.5536165 13.161146 2.8750048
-8.8600168 12.925262 2.8564389
-9.2011166 12.668453 2.8372328
-7.7172432 13.814955 2.930547
-7.9470005 13.623043 2.9131804
-8.32866 13.328466 2.8883576
-7.0998669 14.271786 2.9711115
-7.4510574 13.997921 2.9458752
-7.7138252 13.795338 2.9277558
-6.6091824 14.640915 3.0058846
-6.8381271 14.458872 2.9880829
-15.636019 7.9552212 3.4382753
-14.9775 8.3430843 3.426192
-15.357574 8.0617828 3.4244058
-14.10289 8.9955368 3.4373455
-14.457792 8.7272778 3.4312975
-14.717584 8.5260105 3.4269466
-13.250861 9.6396484 3.4578664
-13.508771 9.4394341 3.4500682
-13.892132 9.151516 3.4411664
-12.630896 10.107906 3.4779792
-13.011123 9.8165417 3.4645448
-11.780863 10.746298 3.5116851
-12.138288 10.481346 3.4971659
-12.416454 10.261292 3.484473
-6.2279077 14.937252 3.0352306
-6.4270902 14.789558 3.0207343
-5.3542347 15.610891 3.1050282
-5.648304 15.378992 3.080358
-6.0178719 15.092976 3.0507462
-4.5233107 16.264236 3.1771781
-4.7527194 16.063385 3.1540856
-5.1591082 15.753576 3.1201744
-3.9179435 16.70579 3.2273033
-4.2495322 16.448013 3.1974459
-4.5195637 16.245142 3.1744585
-3.0282154 17.379805 3.3077435
-3.3831365 17.109549 3.2750266
-3.6418653 16.908888 3.2509906
-2.1752312 18.021009 3.3876014
-2.4341664 17.826765 3.3631074
-2.8373415 17.52009 3.3248985
-1.5417564 18.502605 3.4497693
-1.9239345 18.209766 3.4117627
-1.0658946 18.870903 3.4984374
-1.3185439 18.677103 3.4727018
-11.70822 10.818256 3.5177333
-10.929898 11.406527 3.5566845
-11.190296 11.16264 3.535363
-11.541095 10.932188 3.5235686
-10.053649 12.070217 3.608247
-10.315912 11.865063 3.5910125
-10.668901 11.592402 3.5693235
-9.4374046 12.531523 3.6482437
-9.8212576 12.239456 3.622175
-10.050909 12.052704 3.6051719
-8.5401354 13.208088 3.713671
-8.9196272 12.919415 3.6846993
-9.1761827 12.715675 3.6643326
-7.6915674 13.863285 3.7849123
-7.984828 13.635157 3.7593524
-8.3711987 13.333239 3.7264559
-7.0894203 14.31893 3.8377368
-7.4600964 14.040258 3.8052061
-6.2396493 14.972004 3.9189913
-6.5853291 14.705074 3.8850429
-6.8559351 14.491898 3.8583176
-5.3667951 15.640905 4.0079746
-5.7221489 15.368059 3.9710028
-5.9774866 15.16713 3.9440944
-5.2690215 15.702234 4.0159168
-0.68049002 19.165926 3.5380263
-0.85120416 19.050814 3.5225453
0.14241791 19.792591 3.6240394
-0.12822938 19.58148 3.5948079
-0.4677093 19.327555 3.5599692
1.018538 20.461824 3.7185042
0.75650477 20.256224 3.6892607
0.40361905 19.984018 3.6508167
1.5114625 20.828102 3.7713878
1.2257798 20.612539 3.7402117
1.0224504 20.445759 3.7163165
2.4993107 21.586378 3.8829372
2.1363833 21.30611 3.8414032
1.8866765 21.119144 3.8137848
3.3822749 22.258114 3.984195
3.0560305 22.00798 3.9462936
2.7415226 21.764105 3.9096143
3.5797646 22.400139 4.0060282
-15.600887 7.9573193 4.2153921
-14.738382 8.5969601 4.2209806
-14.985354 8.3941803 4.2149696
-15.35297 8.1251411 4.2132044
-14.119531 9.0403728 4.2286291
-14.472109 8.7797737 4.2222967
-14.735213 8.5772152 4.2170887
-13.247307 9.7128296 4.2569256
-13.562803 9.4679794 4.2452536
-13.883182 9.2041302 4.2318354
-12.395378 10.355457 4.2921085
-12.651482 10.151836 4.2786217
-13.011574 9.8737297 4.2625551
-11.802874 10.798609 4.3216782
-12.161363 10.522308 4.301713
-10.919746 11.467661 4.375762
-11.250584 11.183916 4.3479013
-11.558789 10.977192 4.3343258
-10.039203 12.140102 4.4406319
-10.335493 11.906368 4.4163122
-10.674178 11.642891 4.3904467
-9.1988306 12.786333 4.5122795
-9.4477272 12.584879 4.4882536
-9.8118038 12.305424 4.4573183
-9.114871 12.826067 4.5148706
-9.1956825 12.758574 4.5064459
-4.5169582 16.28738 4.0991011
-4.7744308 16.088593 4.0705032
-5.1284914 15.821978 4.0329781
-3.8979661 16.76079 4.1690798
-4.287231 16.459497 4.1241722
-3.010129 17.438362 4.2734013
-3.4089723 17.133572 4.225873
-3.6575465 16.942074 4.1964216
-2.1968575 18.059885 4.3732758
-2.4988213 17.825567 4.3351812
-2.8077321 17.586344 4.2967262
-1.3168718 18.7283 4.4848013
-1.5886227 18.520119 4.449646
-1.8982632 18.278236 4.4092007
-1.1537071 18.855053 4.5064316
3.985904 22.707401 4.0533104
3.7450783 22.534607 4.0264874
4.4795599 23.080112 4.1112003
4.2213793 22.887585 4.0811329
-8.5803909 13.246094 4.5671005
-8.9358206 12.96949 4.5326109
-7.7079391 13.909288 4.6545277
-8.0515604 13.64925 4.6193886
-8.3207502 13.429964 4.5894613
-6.8351889 14.587439 4.7531042
-7.1306601 14.353027 4.7179165
-7.4986792 14.065853 4.6762085
-6.2383013 15.034422 4.8214645
-6.6361465 14.728983 4.7739954
-5.3951416 15.674152 4.9254122
-5.7288523 15.420832 4.8834991
-5.9970646 15.207865 4.8484821
-4.8553772 16.098999 4.9985714
-5.120368 15.882238 4.960577
-0.68328786 19.21747 4.5690107
-0.9704603 18.999216 4.5311785
0.15731454 19.8531 4.6813679
-0.21266723 19.57605 4.6319923
-0.48257351 19.364111 4.5946131
1.0367393 20.524862 4.8035564
0.74666905 20.30349 4.7629452
0.41623306 20.050167 4.7168646
1.8801734 21.173985 4.9246531
1.5681694 20.932211 4.8793049
1.2539418 20.688072 4.8337965
2.4673274 21.614862 5.0087261
2.079046 21.320545 4.9525309
1.8813598 21.154009 4.9212227
-13.266736 9.7663231 5.0709391
-13.509912 9.6132374 5.067709
-12.37192 10.426476 5.111804
-12.690358 10.157301 5.088316
-13.025485 9.9123688 5.073657
-11.535854 11.050982 5.1630783
-11.793271 10.827669 5.1392021
-12.186954 10.535999 5.1158171
-10.875435 11.542698 5.2109146
-11.276143 11.178463 5.1660652
-11.532989 11.015072 5.154582
-10.035547 12.200615 5.2886124
-10.363871 11.921947 5.2520552
-10.686965 11.650185 5.2180462
-9.6434469 12.529577 5.3335857
-9.7996559 12.35713 5.3056459
-4.5115523 16.359455 5.0442753
-4.6573415 16.250933 5.0251493
-3.6363244 17.03743 5.1682405
-3.935622 16.798582 5.1237335
-4.3010116 16.517405 5.072464
-3.0350349 17.488218 5.2537632
-3.4148352 17.197849 5.1982822
-2.1873813 18.141121 5.3824148
-2.5471339 17.856647 5.3256512
-2.8024671 17.662968 5.2875881
-1.3507799 18.778265 5.5126476
-1.6333159 18.559166 5.467391
-1.9117593 18.336761 5.4217834
2.6194689 21.732616 5.0313177
3.3445179 22.283291 5.1383743
3.0300286 22.044411 5.0917253
2.7205088 21.805061 5.0453835
4.2425241 22.967197 5.2737551
3.9305103 22.729626 5.2264452
3.6020319 22.475428 5.1762371
4.3817739 23.066368 5.293828
-1.2432451 18.865959 5.5309496
-0.43904877 19.485312 5.6623478
-0.71295476 19.26132 5.614459
-1.0768949 18.982727 5.5554438
0.15614223 19.927694 5.75875
-0.20382881 19.651596 5.6984453
1.0612702 20.620831 5.9133053
0.63536382 20.294945 5.8401003
0.40042233 20.109596 5.7989111
1.4783394 20.942509 5.9865065
1.2285168 20.737749 5.9400024
1.8865235 21.261404 6.0597076
1.7453072 21.147308 6.0334787
2.7504485 21.93844 6.2177906
2.4460409 21.681881 6.1580057
2.1217754 21.43342 6.0998678
2.8175409 21.967634 6.2253504
9.3316364 -25.632725 -1.1371996
9.0120869 -25.883554 -1.1378081
8.7110634 -26.141239 -1.1391306
10.181393 -24.996206 -1.1371763
9.9270458 -25.188652 -1.1371474
9.5448971 -25.490038 -1.1376085
10.811543 -24.604874 -1.1400862
10.443171 -24.830616 -1.1382505
10.185679 -25.030727 -1.1382698
11.658081 -23.868637 -1.1388342
11.409101 -24.187904 -1.141984
11.035105 -24.459911 -1.1410568
11.735391 -23.932079 -1.142408
9.353857 -25.67054 -0.42829329
9.063509 -25.900442 -0.42836547
8.749836 -26.158228 -0.42834368
10.190604 -25.016651 -0.42741486
9.9413185 -25.222328 -0.42778724
9.5541954 -25.524343 -0.42818001
10.812342 -24.569603 -0.42622533
10.451457 -24.84107 -0.42699561
10.194213 -25.042725 -0.42746687
11.708124 -23.866028 -0.423466
11.365785 -24.164518 -0.42472792
11.046324 -24.413355 -0.42568544
12.51249 -23.155081 -0.4197664
12.1834 -23.423176 -0.42131051
11.866185 -23.724571 -0.42280966
13.113015 -22.851049 -0.41732436
12.796485 -22.988447 -0.41855988
14.228712 -21.819576 -0.40961722
13.971504 -22.042553 -0.41147947
13.678223 -22.417446 -0.41405994
13.389681 -22.675316 -0.41594225
14.851566 -21.40258 -0.40539786
14.501692 -21.650173 -0.40788153
14.232393 -21.851845 -0.4097718
15.702438 -20.758614 -0.39854351
15.422367 -20.984056 -0.40096307
15.096453 -21.235035 -0.40361387
16.327072 -20.30471 -0.39311969
15.936548 -20.599167 -0.3966231
16.735468 -20.051773 -0.38968205
16.563139 -20.180763 -0.39130792
9.3435488 -25.646791 0.28129464
9.0176125 -25.901205 0.28173441
8.7388992 -26.122637 0.28249747
10.194051 -24.997368 0.28265989
9.9366188 -25.197372 0.2820552
9.5542974 -25.48786 0.28141743
10.813646 -24.529724 0.28568196
10.433359 -24.82094 0.28376371
11.693144 -23.863384 0.29249191
11.323916 -24.147476 0.28937292
11.030677 -24.378267 0.28735268
12.548953 -23.215908 0.3020699
12.246018 -23.452629 0.29853171
11.904887 -23.707792 0.29469037
13.179959 -22.802395 0.31213361
12.778537 -23.052719 0.30534065
14.011818 -22.128628 0.3252638
13.664845 -22.420719 0.31965315
13.378727 -22.656731 0.31527716
14.882835 -21.458256 0.3423816
14.571192 -21.696215 0.3359372
14.246567 -21.964172 0.32985431
15.729845 -20.812538 0.36166596
15.475204 -21.008728 0.35566694
15.118204 -21.282524 0.34755373
16.361607 -20.333744 0.37766641
15.96615 -20.640739 0.36760068
15.736734 -20.858088 0.36245221
17.231283 -19.67103 0.40168333
16.864948 -19.955046 0.39133972
16.571735 -20.194843 0.38345581
18.057108 -19.039852 0.4265812
17.785542 -19.253971 0.41824466
17.453705 -19.51836 0.40832794
18.930012 -18.369175 0.45498663
18.667366 -18.587574 0.44632459
18.291267 -18.878849 0.43412501
19.571405 -17.895985 0.47724646
19.176931 -18.210125 0.46354425
18.936014 -18.401901 0.45536292
20.407616 -17.25193 0.50765914
20.102852 -17.501972 0.49642289
19.778196 -17.762596 0.48467094
21.292307 -16.586037 0.54164761
20.975307 -16.837105 0.52928883
20.678007 -17.080925 0.51789898
21.898359 -16.138603 0.56589299
21.52342 -16.430504 0.55080026
21.275444 -16.658304 0.54096234
22.254757 -15.87468 0.58047593
22.108374 -15.998376 0.57442278
8.644084 -26.180674 0.99461293
9.3551893 -25.606178 0.99076104
8.989172 -25.888582 0.99159789
8.6740055 -26.175104 0.9954375
10.178786 -24.97316 0.99243546
9.8831453 -25.205463 0.99161839
9.5739012 -25.450987 0.9914403
11.051309 -24.3125 0.99975884
10.796716 -24.529724 0.99835706
10.415828 -24.815605 0.9950701
11.694415 -23.829987 1.0086733
11.324247 -24.130054 1.0043114
11.055942 -24.343052 1.0014708
12.542415 -23.194891 1.0245229
12.226683 -23.4534 1.0190872
11.906052 -23.701159 1.0135267
13.398285 -22.577822 1.0461276
13.16885 -22.788223 1.0417749
12.780275 -23.041407 1.0308554
14.024605 -22.076326 1.0628809
13.643126 -22.416979 1.0537711
13.387039 -22.655594 1.0486059
14.895844 -21.416332 1.0915576
14.527084 -21.696255 1.0789129
14.233826 -21.93668 1.0700165
15.714087 -20.786453 1.1221811
15.443033 -20.999809 1.1118134
15.113876 -21.2616 1.0997664
16.590931 -20.114685 1.1592574
16.328653 -20.328503 1.1481299
15.952549 -20.621952 1.1324199
17.231218 -19.632111 1.1891408
16.850082 -19.93684 1.1715809
16.595291 -20.146658 1.1604095
17.944565 -19.058117 1.2239556
17.720573 -19.26144 1.2132894
17.441063 -19.503693 1.20005
8.7136488 -26.037655 1.7020154
8.591568 -26.146921 1.7043459
9.3507023 -25.556379 1.7000933
8.9476976 -25.862787 1.701082
8.7166681 -26.068691 1.7048788
10.211518 -24.892023 1.702379
9.8429995 -25.178099 1.7006989
9.5482426 -25.409983 1.700454
11.074569 -24.25156 1.7137473
10.781202 -24.475542 1.70964
10.432513 -24.73785 1.705368
11.486013 -23.913357 1.719249
11.272369 -24.104561 1.717371
18.069813 -18.994171 1.231132
17.949247 -19.121698 1.225657
18.955132 -18.322956 1.2791047
18.657866 -18.559542 1.2628492
18.291365 -18.841942 1.2431337
19.783073 -17.657579 1.326517
19.588814 -17.856018 1.3157988
19.167221 -18.172184 1.2913188
20.403927 -17.227654 1.3649439
20.047813 -17.504808 1.3431865
19.770557 -17.735247 1.3267833
21.281725 -16.554016 1.4208326
20.953072 -16.818888 1.399721
20.651737 -17.064087 1.3807322
22.13209 -15.914152 1.4777424
21.882961 -16.107231 1.4608836
21.474033 -16.435526 1.4337411
22.319181 -15.782619 1.4906545
22.133034 -15.953321 1.4780763
8.6051359 -26.273462 1.7160194
11.907056 -23.586571 1.7279613
11.675781 -23.796354 1.7251837
11.376534 -24.045864 1.720711
12.52613 -23.148098 1.7466574
12.167511 -23.432714 1.7375805
11.910798 -23.625732 1.7309773
13.398609 -22.481083 1.7754154
13.080618 -22.734566 1.7648571
12.761435 -22.984196 1.7547603
14.250168 -21.847763 1.8109598
14.003473 -22.037655 1.8004816
13.632969 -22.329102 1.7859581
14.888075 -21.364601 1.8411102
14.503239 -21.660271 1.8227742
14.254841 -21.875698 1.8129485
15.750881 -20.700323 1.8865201
15.37957 -20.990376 1.8664823
15.087486 -21.217703 1.851387
16.576315 -20.067501 1.9355354
16.325802 -20.273909 1.9208059
15.96969 -20.546824 1.8996556
17.446346 -19.394905 1.9924896
17.192308 -19.604681 1.9758656
16.808849 -19.906836 1.9510829
18.044392 -18.954819 2.0355735
17.726416 -19.200085 2.0128236
17.4499 -19.425797 1.9940429
18.937187 -18.284176 2.1035972
18.624632 -18.526409 2.079489
18.296713 -18.79147 2.0551796
19.808832 -17.605579 2.1739931
19.515787 -17.844208 2.1501465
19.161678 -18.115467 2.1214552
20.321535 -17.22559 2.2179861
20.022514 -17.472584 2.1928346
11.911315 -23.571402 2.4518187
11.65182 -23.769392 2.4444275
11.277549 -24.053759 2.4349039
12.527228 -23.096846 2.4724576
12.148304 -23.389896 2.4593709
13.408833 -22.435644 2.5111747
13.024624 -22.719049 2.4928477
12.76653 -22.918051 2.4820931
14.230074 -21.80043 2.5535731
13.974066 -22.005806 2.5401914
13.626724 -22.269672 2.5218737
15.107737 -21.136995 2.6082485
14.839228 -21.341152 2.5908301
14.491205 -21.615641 2.5699797
15.744745 -20.651962 2.6527796
15.356245 -20.949736 2.6253045
15.108915 -21.156712 2.6098001
16.57991 -20.010525 2.7168119
16.252619 -20.27063 2.6914885
15.94832 -20.50597 2.668381
20.488514 -17.106773 2.2327464
21.261744 -16.51202 2.3019276
20.905247 -16.789152 2.2697177
20.62706 -17.02334 2.2454317
22.135494 -15.841303 2.3838093
21.814175 -16.100849 2.3535182
21.510538 -16.339888 2.3251917
22.618 -15.502676 2.4309845
22.350307 -15.694918 2.4047897
8.8070469 -25.889277 3.1331346
9.593812 -25.284945 3.1299827
9.3158607 -25.516298 3.132621
8.985384 -25.773468 3.1346302
10.039986 -24.967266 3.1357534
9.806179 -25.147943 3.1344023
16.676188 -19.951092 2.7254934
17.465651 -19.339518 2.7925465
17.155632 -19.577908 2.7654953
16.828033 -19.833511 2.737952
18.302143 -18.683352 2.8693621
18.032124 -18.903585 2.8443859
17.683281 -19.175901 2.8123562
18.908709 -18.23933 2.9302976
18.573084 -18.499634 2.8969631
18.303591 -18.703865 2.8705547
19.800234 -17.56163 3.0238786
19.475615 -17.808165 2.9891486
19.156178 -18.069542 2.956466
20.668446 -16.889679 3.1202297
20.370447 -17.125652 3.0867736
20.003321 -17.406868 3.046021
21.268885 -16.438875 3.1904242
20.850164 -16.759237 3.1414461
21.57206 -16.18717 3.2260351
21.497135 -16.26693 3.2176368
22.146851 -15.764242 3.2967181
21.761881 -16.065048 3.249655
22.990395 -15.117687 3.4033005
22.663101 -15.368799 3.3615
22.361008 -15.609159 3.3235774
23.83832 -14.471971 3.514518
23.583555 -14.667046 3.4807556
23.219778 -14.951758 3.433167
24.028297 -14.334257 3.5400643
11.168489 -24.039705 3.8814309
11.928686 -23.522457 3.9198034
11.657 -23.76363 3.9134133
11.32859 -24.086262 3.9121044
12.774541 -22.874409 3.9633682
12.512567 -23.076054 3.9488051
12.116385 -23.383528 3.9291532
13.399345 -22.404343 4.004653
13.03169 -22.687048 3.9804814
12.780585 -22.913464 3.9696457
14.275005 -21.730042 4.0711718
13.876049 -22.044655 4.040288
13.635984 -22.251476 4.0250216
15.102074 -21.09833 4.1458864
14.842981 -21.32164 4.12428
14.474379 -21.60894 4.0918741
15.671288 -20.692753 4.20648
15.368374 -20.944176 4.1775885
15.819897 -20.679258 4.2326374
