# .PCD v0.7 - Point Cloud Data file format
VERSION 0.7
FIELDS x y z
SIZE 4 4 4
TYPE F F F
COUNT 1 1 1
WIDTH 1327
HEIGHT 1
VIEWPOINT 0 0 0 0.707107 -0.707107 0 0
POINTS 1327
DATA ascii
-26.547171 -1.2741199 -0.46391597
-26.334345 -1.1443168 -0.46010396
-26.127621 -0.78009588 -0.45626715
-25.987514 -0.57438374 -0.4537248
-25.805702 -0.23973331 -0.45046598
-25.591839 0.18561186 -0.44672453
-25.444353 0.39004648 -0.44418675
-25.250587 0.76656979 -0.44096103
-25.056276 1.0594214 -0.43775132
-24.899075 1.2982609 -0.43521088
-24.663012 1.7449981 -0.43157703
-24.494368 1.9922857 -0.42896271
-24.513416 2.025733 -0.42934379
-24.29771 2.2772694 -0.42598262
-24.056946 2.608222 -0.42237833
-23.896606 2.8465111 -0.42007008
-23.664328 3.2252121 -0.41688889
-23.49395 3.4886079 -0.41458496
-23.503981 3.5061519 -0.4148033
-23.340103 3.7737727 -0.41270268
-23.09762 4.1978655 -0.40978137
-22.94165 4.441011 -0.40788278
-22.760681 4.7693987 -0.40592906
-22.559719 5.1147671 -0.40377778
-22.433708 5.3464108 -0.40255201
-22.300062 5.653893 -0.40156749
-19.303135 10.819672 -0.386262
-19.094069 11.195496 -0.38636172
-18.943373 11.437398 -0.38625428
-18.776989 11.780979 -0.3869358
-18.575195 12.008294 -0.38608387
-26.291027 -1.199695 0.45939365
-26.076492 -0.83865309 0.45540407
-25.940029 -0.61298752 0.45291197
-25.719494 -0.22359782 0.44896016
-25.559347 0.064126439 0.44614282
-25.393112 0.34126607 0.44328222
-25.169615 0.72944146 0.43952832
-24.995768 0.99563158 0.43664879
-25.009735 1.013373 0.43690479
-24.844391 1.2767129 0.43423933
-24.603634 1.7056001 0.43049473
-24.472412 1.9171455 0.42847681
-24.295296 2.2394211 0.42588094
-24.080509 2.6224244 0.42281318
-23.920979 2.880137 0.42055893
-23.717976 3.2398393 0.41785276
-23.525108 3.5811911 0.41536403
-23.395933 3.7959604 0.41372433
-23.164574 4.211288 0.41097394
-22.99296 4.4887128 0.40892017
-23.007814 4.514523 0.40926084
-22.836386 4.7757115 0.40724188
-22.61203 5.1706781 0.40488747
-22.454226 5.4015918 0.40312406
-22.336588 5.6451125 0.40214863
-19.292429 10.990563 0.38756171
-19.141163 11.182371 0.38695669
-18.987206 11.424641 0.38679296
-19.002594 11.506113 0.38775757
-18.808887 11.763926 0.3872467
-18.603088 12.148345 0.38782877
-18.441576 12.438424 0.38827601
-18.259407 12.768693 0.38892916
-18.051683 13.10733 0.38939786
-17.910234 13.317973 0.38958919
-17.652414 13.652841 0.38953549
-17.447975 13.897099 0.38935626
-17.24054 14.231571 0.39023057
-17.056435 14.558815 0.39143118
-16.900877 14.79948 0.39213121
-16.654825 15.222617 0.39385787
-16.494602 15.487437 0.39493701
-16.506653 15.511337 0.39537624
-16.334497 15.773842 0.39636979
-16.102406 16.201269 0.39871928
-15.947449 16.446289 0.39987141
-15.818913 16.720612 0.40178588
-15.573703 17.159967 0.40449646
-15.442739 17.388712 0.40593958
-15.224991 17.755625 0.40827125
-15.055928 18.059292 0.41040659
-14.9046 18.303429 0.41202009
-14.666263 18.727036 0.41520414
-14.493693 18.989 0.41697127
-14.508093 19.013437 0.41746277
-14.343645 19.291866 0.41962585
-14.116108 19.707771 0.42314506
-26.253593 -1.2251377 1.3774071
-26.05624 -0.89088535 1.3663523
-25.926342 -0.67641008 1.3592138
-25.68269 -0.24682161 1.346054
-25.510918 0.069046557 1.336973
-25.374128 0.29512441 1.3299056
-25.130096 0.72133052 1.3175715
-24.98901 0.93317831 1.3105327
-24.808462 1.2579254 1.3018459
-24.577654 1.6637182 1.2910153
-24.442123 1.8886452 1.2847812
-24.251097 2.2350121 1.2763573
-24.052612 2.6039095 1.2679166
-23.897181 2.8384182 1.2612154
-23.674274 3.2440734 1.2523371
-23.493216 3.4971123 1.2447933
-23.513897 3.5242581 1.2460757
-23.36372 3.7730818 1.2403262
-23.121252 4.2131534 1.2317059
-22.987103 4.4267597 1.2268411
-22.812252 4.7388911 1.2210872
-22.574944 5.1607919 1.213634
-22.435616 5.383369 1.2091841
-22.327423 5.6225162 1.2066692
-19.603395 10.313354 1.1608857
-19.483986 10.473849 1.1592999
-19.50334 10.509624 1.1610806
-19.324078 10.754584 1.1590409
-19.091555 11.184072 1.1596116
-18.955042 11.397747 1.159162
-18.772141 11.755774 1.1608359
-18.5665 12.153393 1.1629704
-18.438694 12.384134 1.164068
-18.22356 12.753157 1.1657263
-18.018185 13.077953 1.1668141
-17.876522 13.284164 1.1672456
-17.631393 13.721853 1.170908
-17.489847 13.930185 1.1718109
-17.508327 14.009266 1.1751516
-17.307894 14.261621 1.1753644
-17.093054 14.639373 1.179463
-16.942163 14.888173 1.1820273
-16.745541 15.235611 1.1865082
-16.550268 15.603611 1.1920789
-16.408333 15.818266 1.1944689
-16.199785 16.220032 1.2014327
-15.994512 16.489695 1.2039363
-16.015108 16.572445 1.2078054
-15.851869 16.796518 1.2104112
-15.608056 17.209782 1.2176268
-15.482147 17.420176 1.2214036
-15.305194 17.759813 1.2287186
-15.093729 18.140823 1.2367841
-14.9294 18.384092 1.2411547
-14.750924 18.734421 1.2496748
-14.548678 19.101339 1.258369
-14.404448 19.315357 1.2627844
-14.165952 19.746941 1.2736659
-13.983727 19.96277 1.2773501
-14.023895 20.099092 1.28441
-13.8774 20.280563 1.287885
-19.622871 10.241764 1.9365871
-19.488117 10.411884 1.9330864
-19.51202 10.572208 1.9415636
-19.32733 10.778429 1.9361439
-19.113073 11.197503 1.9380569
-18.950294 11.38702 1.9342461
-18.77434 11.760577 1.9382645
-18.580975 12.12089 1.9409401
-18.399282 12.342157 1.9383726
-18.213213 12.782763 1.9467872
-18.076754 13.087666 1.9525076
-17.891098 13.338737 1.9524463
-17.636389 13.716339 1.9547399
-17.437975 13.927315 1.9525003
-17.52298 14.035248 1.9641999
-17.342871 14.233874 1.9629356
-17.097099 14.706389 1.9730711
-16.903885 14.899345 1.9713911
-16.776642 15.239082 1.9829431
-16.548161 15.599925 1.989684
-16.433205 15.729891 1.9902115
-16.261536 16.002497 1.9960408
-26.270094 -1.2370843 2.3009176
-26.100275 -0.91202104 2.2848713
-25.905716 -0.66769773 2.2672327
-25.692753 -0.24965145 2.2479622
-25.498596 -0.013351035 2.2308383
-25.525944 0.11152408 2.2332616
-25.38726 0.30316707 2.2212772
-25.141802 0.67987418 2.2004492
-24.974171 0.92347097 2.1864471
-24.799242 1.2520468 2.1724479
-24.586187 1.7104783 2.1562417
-24.425106 1.8917754 2.1433315
-24.27066 2.2217171 2.1323287
-24.071983 2.6514707 2.1187801
-23.880556 2.8422203 2.1040542
-23.71015 3.205647 2.0932817
-23.484447 3.4823716 2.0770903
-23.519772 3.574749 2.0813518
-23.362211 3.8001654 2.070833
-23.151049 4.225328 2.0589571
-22.951193 4.4524937 2.0454099
-22.818981 4.7702885 2.0396113
-22.609137 5.1348224 2.0284388
-22.456436 5.3918896 2.0205426
-22.368847 5.5776057 2.0169482
-16.409525 15.996618 2.0049307
-16.266033 16.139715 2.0047758
-16.008528 16.673138 2.0222309
-15.830133 16.847719 2.0225945
-15.626452 17.199253 2.0330801
-15.466956 17.444008 2.0396709
-15.30571 17.792292 2.0533769
-15.069858 18.177832 2.0658236
-14.920364 18.428698 2.0744927
-14.709862 18.779818 2.0870781
-14.452508 19.297993 2.1093433
-14.215779 19.719528 2.1268034
-24.306534 1.9270759 2.993834
-24.170666 2.2314529 2.9804566
-23.993938 2.4827075 2.9618154
-24.014269 2.6205359 2.9661016
-23.836357 2.7932837 2.9468191
-23.611183 3.2215686 2.9260006
-23.473904 3.4178891 2.9126391
-23.294703 3.7582712 2.8972666
-23.098108 4.1939569 2.8825529
-22.917425 4.3897758 2.8650789
-22.737032 4.7645159 2.8524718
-22.580467 5.0898657 2.842118
-22.410393 5.3186221 2.8281395
-22.183699 5.7190404 2.8129592
-21.980644 5.987474 2.7972252
-22.020584 6.0113425 2.8027167
-21.853876 6.238183 2.7905643
-21.613325 6.7254357 2.7793255
-21.45714 6.9036541 2.7676296
-21.505022 7.0081596 2.7771587
-21.279764 7.2649789 2.7609625
-21.078836 7.6677527 2.754087
-20.905182 7.8515816 2.7419176
-20.717676 8.2360735 2.7375383
-20.527765 8.6312208 2.7342513
-20.389664 8.8190327 2.7277374
-20.13896 9.1936111 2.7182925
-19.983984 9.4240799 2.7128737
-19.803444 9.7578878 2.7107725
-19.581715 10.172946 2.7094779
-19.451077 10.392363 2.7078078
-19.256489 10.755103 2.7082529
-19.069233 11.155379 2.7126424
-18.93581 11.327501 2.709312
-18.688953 11.78432 2.7128756
-18.540508 12.102156 2.7185621
-18.356981 12.303432 2.7134452
-18.160852 12.73195 2.7233233
-17.954992 12.8925 2.7140815
-18.023844 13.081933 2.7345533
-17.863106 13.236928 2.7299385
-17.593248 13.701037 2.7380421
-17.430256 13.87301 2.7353177
-17.262402 14.244451 2.7480669
-17.068781 14.64831 2.7617517
-16.905933 14.815779 2.7601502
-16.694084 15.23457 2.7750461
-16.519825 15.522383 2.7832766
-16.395634 15.735765 2.7903235
-16.192629 16.144966 2.8076496
-15.773213 16.807215 2.8301723
-15.598522 17.151268 2.8466249
-15.448103 17.287271 2.8466723
-15.238408 17.77412 2.874711
-15.011208 18.160496 2.8929954
-14.889526 18.336222 2.9002604
-14.665124 18.765299 2.9242864
-14.484656 18.958857 2.9294953
-14.400823 19.271004 2.9538691
-14.15768 19.695349 2.9782605
-26.324747 -1.5113039 3.2375889
-26.168339 -1.2456657 3.2167547
-25.994516 -1.0101948 3.1941345
-26.028326 -0.94876891 3.1980021
-25.847631 -0.70565236 3.1749229
-25.62356 -0.28624243 3.1464214
-25.466728 -0.084062144 3.1269524
-25.308805 0.26299965 3.1077342
-25.106773 0.60598558 3.0836201
-24.920641 0.87686777 3.061763
-24.713392 1.2449114 3.0383079
-24.552576 1.6072712 3.0211532
-24.424587 1.7895696 3.007035
-24.372055 2.0165963 3.0027387
-20.242868 8.830986 3.4980068
-20.069773 9.1567259 3.4939892
-19.937218 9.3836536 3.490046
-19.717884 9.7749519 3.4857972
-19.561842 10.063364 3.4842508
-19.396749 10.338025 3.481297
-19.174372 10.744896 3.4813442
-18.998388 10.996153 3.4767251
-19.013672 11.024511 3.4810722
-18.866131 11.27562 3.4811821
-18.619717 11.698951 3.4829412
-18.480259 11.919519 3.4830055
-18.296618 12.242667 3.4868948
-18.065397 12.653439 3.4933665
-17.936117 12.847325 3.4944108
-17.755352 13.142484 3.4987819
-25.154219 0.33167961 3.9844193
-25.018225 0.57672393 3.9635656
-24.878792 0.79820257 3.9424891
-24.628546 1.2398938 3.9057631
-24.491535 1.4865661 3.8862181
-24.502317 1.5087719 3.8881361
-24.323025 1.7786539 3.8627446
-24.108831 2.1652863 3.8338764
-23.939339 2.4386687 3.8112471
-23.77352 2.7434869 3.7904308
-23.561741 3.113312 3.7642677
-23.424284 3.3379791 3.7475498
-23.196589 3.7476926 3.721704
-23.012472 4.072721 3.7014551
-22.890142 4.2816534 3.6883845
-22.636951 4.7275424 3.6627591
-22.483355 4.9738455 3.6471148
-22.319235 5.2751517 3.6324949
-22.102808 5.6560235 3.6135919
-21.950205 5.9017372 3.6000576
-21.749575 6.2401686 3.5838823
-21.555763 6.6093888 3.5710149
-21.421598 6.8196006 3.5606682
-21.183081 7.2525635 3.5463519
-21.014771 7.5733461 3.5379581
-20.870865 7.7802973 3.5279033
-20.628515 8.2194405 3.5171123
-20.480774 8.4684906 3.5102015
-20.321085 8.7468719 3.5041256
-18.001955 12.816982 3.5000646
-17.922623 12.93476 3.5007324
-17.721939 13.253067 3.505048
-17.555786 13.560174 3.5134535
-17.396034 13.794928 3.5164902
-17.157682 14.208557 3.5284297
-16.989243 14.482037 3.5357835
-17.005795 14.511117 3.5407696
-16.831802 14.77169 3.5470161
-16.596994 15.198078 3.5643911
-16.440331 15.437524 3.5719349
-16.262453 15.782481 3.58936
-16.068434 16.120934 3.6050711
-15.931375 16.343489 3.6149423
-15.694336 16.740444 3.6344986
-15.49663 16.994787 3.6427329
-15.510195 17.074253 3.653492
-15.377585 17.295769 3.6656065
-15.132043 17.744139 3.6936378
-14.989422 17.925688 3.7009563
-15.002892 18.010347 3.7126179
-14.833334 18.252663 3.7252657
-14.593894 18.683981 3.7550421
-14.446544 18.893866 3.7670393
-14.242915 19.276873 3.7962081
-14.043642 19.649908 3.8254066
-13.927787 19.835577 3.8387918
-13.69806 20.243168 3.8713403
-13.525703 20.580879 3.9006271
-13.389543 20.76992 3.9140043
-13.132957 21.221487 3.9527822
-26.255136 -1.5762433 4.165905
-26.112249 -1.3296402 4.1411619
-25.966099 -1.0867964 4.1162295
-25.793983 -0.77598244 4.0872741
-25.56753 -0.38181627 4.0499597
-25.416321 -0.12589678 4.0256057
-25.291052 0.11765277 4.0057611
-22.702812 4.4305472 4.4962344
-22.61327 4.7913451 4.4932208
-22.479149 4.9753008 4.475256
-22.528465 5.0738573 4.4887962
-22.341473 5.2728314 4.4621286
-22.120668 5.6952929 4.4401116
-21.946396 5.8891039 4.4169135
-21.751251 6.2531247 4.3993697
-21.588808 6.5976396 4.3880868
-21.402447 6.8498254 4.3681278
-21.208355 7.2165532 4.3547277
-20.99637 7.4971232 4.3336539
-21.01836 7.5835614 4.3434124
-20.884731 7.800179 4.3335662
-20.649973 8.2180471 4.3202205
-20.468533 8.4225779 4.302352
-20.508545 8.5119438 4.3161788
-20.310965 8.7460175 4.298625
-20.062475 9.1495657 4.2861972
-19.93117 9.3445053 4.2789354
-19.704805 9.7609577 4.2745194
-19.542091 10.101327 4.2760935
-19.402964 10.31271 4.2712622
-19.20705 10.722584 4.2759972
-18.998411 10.999495 4.2672062
-19.017265 11.086478 4.2788806
-18.86936 11.276196 4.272954
-18.640383 11.697101 4.2777309
-18.433533 11.928627 4.2679248
-18.511692 12.013765 4.2896585
-18.29929 12.292109 4.2851238
-18.100679 12.695466 4.2976322
-17.937405 12.80681 4.2842102
-17.763565 13.225311 4.3048844
-17.568262 13.615458 4.3204546
-17.393272 13.818385 4.3180985
-17.209898 14.198369 4.3369298
-17.002678 14.50326 4.3440242
-16.831491 14.805217 4.3573976
-16.629515 15.200108 4.3794556
-16.449886 15.37738 4.3771267
-16.509172 15.520797 4.4045396
-16.3496 15.728003 4.409934
-16.073511 16.152397 4.42944
-15.923429 16.329878 4.4335284
-15.713222 16.732716 4.4619184
-15.490413 16.97607 4.4671106
-15.570006 17.069349 4.4909534
-15.353302 17.279957 4.4932861
-25.675161 -0.62444651 4.9922457
-25.565657 -0.38987869 4.970047
-25.419786 -0.17168507 4.9412932
-25.209305 0.22821578 4.9004545
-24.987537 0.48414803 4.8579969
-25.030157 0.57637572 4.8666468
-24.847115 0.7982623 4.8323488
-24.642717 1.216194 4.7959528
-24.489975 1.4265361 4.7684469
-24.509193 1.5189657 4.7732506
-24.333246 1.7517915 4.7422414
-24.102909 2.1877635 4.704442
-23.94828 2.3957953 4.6783323
-23.761559 2.7516062 4.6497502
-23.567125 3.1491315 4.621738
-23.407988 3.334142 4.5960145
-23.206047 3.7652338 4.5699048
-22.986418 3.973825 4.5343828
-23.067348 4.1088753 4.5544415
-22.881144 4.3178458 4.5261946
-22.734135 4.6250029 4.5096173
-15.337329 17.445879 4.5153041
-15.175098 17.728989 4.5362921
-14.948009 17.90872 4.5343852
-15.029806 18.096106 4.5725451
-14.8165 18.280855 4.5741067
-14.627698 18.69314 4.6138887
-14.46944 18.860313 4.6206946
-14.512125 19.010279 4.6488705
-14.288612 19.239386 4.6584096
-14.08451 19.571543 4.6870346
-26.290262 -1.6287282 5.1201305
-26.10516 -1.3327692 5.0809999
-25.935215 -1.1095113 5.0459261
-25.801373 -0.80091852 5.0177464
-23.576729 2.9654288 5.4860063
-23.474726 2.9988534 5.4636111
-23.559834 3.0841856 5.4856319
-23.402433 3.3107071 5.456779
-23.314926 3.646785 5.4483008
-22.863464 4.3531642 5.3733311
-22.543396 4.9486132 5.3284764
-22.523245 5.0427971 5.3286405
-22.267517 5.2821617 5.283596
-22.117022 5.7134924 5.2738557
-21.914106 5.8861446 5.2386618
-21.707506 6.2557168 5.2156148
-21.541449 6.5624943 5.1989059
-21.409309 6.8515706 5.1897578
-21.187597 7.2257624 5.1682968
-21.000841 7.5054812 5.1487622
-20.837629 7.81322 5.1379333
-20.657581 8.1209002 5.1245184
-20.462152 8.3647242 5.1035695
-20.25001 8.8147678 5.0989604
-20.074949 9.1922884 5.0975232
-19.913691 9.3620052 5.080225
-19.746649 9.7237854 5.0817599
-19.497927 9.9961557 5.0585546
-19.55443 10.062861 5.0772138
-19.383556 10.284871 5.0660686
-19.13665 10.708466 5.0628138
-18.973814 10.958071 5.0585198
-18.270842 12.44484 5.1036897
-18.130676 12.648135 5.1036897
-17.02816 14.402653 5.1489048
-16.852654 14.751848 5.1709499
-15.650669 16.726532 5.2885618
-15.485915 16.849659 5.2834253
-15.574728 17.032608 5.3284159
-25.869877 -1.0553052 5.9775085
-25.722158 -0.75255018 5.9410486
-25.607382 -0.3816627 5.9126053
-25.414581 -0.14746039 5.8675385
-25.190643 0.23261254 5.8160677
-25.018509 0.5840894 5.777586
-24.824423 0.79477334 5.7342086
-24.664337 1.1754593 5.7007532
-24.455442 1.4295282 5.6556296
-24.316055 1.7683821 5.6287374
-24.098076 2.1888831 5.5864301
-23.934977 2.3581324 5.5526199
-23.779387 2.6927874 5.5250735
-23.661243 3.0648508 5.5082741
-21.447502 6.426322 5.9992847
-21.289074 6.763217 5.9854589
-21.069431 7.1562691 5.962357
-20.92572 7.3836808 5.9458818
-20.724751 7.7415681 5.9281468
-20.554647 8.059617 5.9158912
-20.401884 8.2844114 5.9002762
-20.187796 8.6894875 5.8892789
-19.987473 8.9784832 5.8711519
-20.006136 9.0053072 5.8786674
-19.83667 9.2549658 5.8654037
-19.598171 9.6991959 5.8593683
-19.455429 9.9041386 5.8497214
-19.292034 10.238703 5.8523273
-19.065048 10.652162 5.8518128
-18.933947 10.845716 5.8467827
-18.731157 11.254379 5.8554487
-18.545364 11.599361 5.8611908
-18.38792 11.815138 5.8565831
-18.16342 12.230964 5.8675957
-17.987492 12.478746 5.8660016
-18.00786 12.5646 5.8836298
-17.841778 12.772884 5.8796272
-17.607992 13.206857 5.897809
-17.447844 13.417241 5.8976526
-17.271309 13.733835 5.9127641
-17.063765 14.151261 5.9400043
-16.905304 14.359818 5.9434476
-16.698662 14.748694 5.9698739
-16.548487 15.05498 5.994555
-16.374002 15.24909 5.9954863
-26.240862 -1.6249291 6.0697999
-26.108288 -1.3632822 6.0358038
-25.972164 -1.1927463 6.0025077
-25.982117 -0.99245548 6.0028191
-24.122793 1.8054342 6.4818182
-23.994955 1.9914708 6.4515386
-24.012573 2.0206187 6.4568958
-23.829168 2.3128569 6.4151216
-23.629234 2.6905432 6.3724513
-23.475733 2.9179769 6.3387175
-23.297436 3.2576509 6.303369
-23.09865 3.6513174 6.2661796
-22.92877 3.8859792 6.2313838
-22.745081 4.2373829 6.199513
-22.550924 4.6059828 6.1672993
-22.407482 4.8173203 6.1413579
-22.158754 5.2598615 6.1025128
-21.994379 5.4888911 6.0741234
-22.011789 5.5664635 6.0837202
-21.843731 5.7923479 6.0554266
-21.604298 6.2069354 6.023149
-21.480515 6.4167614 6.0069885
-21.39978 6.6188965 6.0020804
-16.535902 15.107904 6.0016217
-16.364326 15.331285 6.0085802
-16.162813 15.733045 6.0439162
-15.958503 15.951861 6.0460382
-16.018234 16.090614 6.0836535
-15.814089 16.308638 6.0871077
-15.592819 16.630743 6.1085734
-15.43351 16.888514 6.1302319
-15.270145 17.252193 6.1735349
-15.057522 17.624187 6.211278
-14.906402 17.800169 6.2211475
-14.689355 18.265314 6.2806683
-14.497717 18.496271 6.2970672
-14.512444 18.590311 6.3193569
-14.356536 18.779499 6.3340373
-14.126333 19.194929 6.3860278
-25.016071 0.29748827 6.7035141
-24.913261 0.37705863 6.6762743
-24.671314 0.78348595 6.6141052
-24.515905 1.1328588 6.576056
-24.402813 1.2998419 6.5480752
-24.240429 1.6248913 6.5098166
-18.653021 -13.601716 -2.0197475
-18.326954 -13.775306 -2.0058506
-19.602871 -13.051321 -2.0603831
-19.250605 -13.249588 -2.0446217
-18.896526 -13.447308 -2.0291224
-20.512203 -12.509031 -2.101964
-20.263845 -12.659945 -2.0904479
-19.836023 -12.894649 -2.0699019
-20.692289 -12.417293 -2.1112945
-20.492802 -12.497204 -2.0999742
-13.008698 -17.003643 -1.8730553
-12.725086 -17.159569 -1.8690768
-12.497049 -17.297014 -1.866941
-13.665602 -16.606619 -1.8816019
-13.279026 -16.823587 -1.875178
-12.989996 -16.994736 -1.8714412
-14.625404 -16.048809 -1.8996761
-14.24711 -16.258335 -1.8913444
-13.90288 -16.456146 -1.8847694
-15.535814 -15.520862 -1.9212829
-15.249212 -15.679248 -1.9135869
-14.776317 -15.952008 -1.9023908
-16.21348 -15.125063 -1.9399238
-15.734205 -15.391325 -1.925698
-17.071451 -14.511458 -1.9602509
-16.726019 -14.721545 -1.9494867
-16.433828 -14.933949 -1.9427544
-17.703613 -14.126192 -1.9815476
-17.278154 -14.368526 -1.9660761
-18.144167 -13.855027 -1.997308
-17.925888 -13.985329 -1.9891492
-11.245527 -18.098799 -1.1167167
-12.118178 -17.564116 -1.1183339
-11.751069 -17.781557 -1.1170312
-11.420555 -17.977203 -1.1161849
-13.074533 -17.015236 -1.1245865
-12.767449 -17.187336 -1.1221094
-12.341664 -17.428282 -1.1192123
-13.722545 -16.631927 -1.1300503
-13.281854 -16.88513 -1.125897
-14.58794 -16.10046 -1.1386309
-14.25313 -16.322613 -1.1356955
-13.970592 -16.483253 -1.1323916
-15.502669 -15.560274 -1.1511294
-15.252894 -15.674515 -1.1462458
-14.825618 -15.885606 -1.1387911
-15.434008 -15.447714 -1.144411
-17.178505 -14.595771 -1.1813903
-16.774588 -14.798747 -1.1723639
-16.444616 -14.907913 -1.1632537
-18.088778 -14.073647 -1.2011298
-17.746256 -14.276294 -1.1936588
-17.417141 -14.47159 -1.1867616
-19.030687 -13.520105 -1.2234285
-18.75123 -13.681091 -1.2164944
-18.338684 -13.924722 -1.2067608
-19.705315 -13.127161 -1.2409017
-19.290314 -13.366899 -1.2299746
-20.65872 -12.571668 -1.2673994
-20.236944 -12.814957 -1.2553617
-19.926411 -12.986511 -1.2465028
-21.585159 -12.030121 -1.2950594
-21.252886 -12.221896 -1.284875
-20.88373 -12.436739 -1.2738514
-21.769913 -11.920223 -1.3007537
-11.25869 -18.139683 -0.37266642
-12.181334 -17.579527 -0.37332538
-11.774151 -17.818174 -0.37279767
-11.482175 -17.988451 -0.37250382
-13.062476 -17.062899 -0.3750912
-12.752686 -17.242367 -0.37435478
-12.395775 -17.447927 -0.37359333
-14.017512 -16.509815 -0.37803978
-13.725285 -16.680927 -0.37706995
-13.343911 -16.895357 -0.37580267
-14.705401 -16.105106 -0.38068151
-14.253819 -16.36725 -0.37884963
-15.618356 -15.56574 -0.38489604
-15.251826 -15.782001 -0.38310397
-14.918438 -15.975147 -0.38153103
-16.574203 -15.013634 -0.3903513
-16.248663 -15.198384 -0.38836461
-15.803043 -15.402537 -0.38519296
-17.211607 -14.634331 -0.39435464
-16.782993 -14.885798 -0.39158374
-18.139486 -14.0845 -0.40086767
-17.74939 -14.318774 -0.39807117
-17.467693 -14.480872 -0.39604849
-19.084789 -13.530199 -0.40834999
-18.770596 -13.715077 -0.40579218
-18.383772 -13.936983 -0.40268219
-20.006262 -13.003407 -0.4164924
-19.717127 -13.166978 -0.41385749
-19.328289 -13.38577 -0.41038808
-20.669203 -12.611319 -0.42264023
-20.28253 -12.83237 -0.41894877
-19.994621 -12.99612 -0.41625288
-21.612875 -12.06074 -0.4320195
-21.229418 -12.284389 -0.42813492
-20.914867 -12.469475 -0.42503172
-22.216631 -11.716283 -0.43841976
-21.842199 -11.927876 -0.43440378
-11.522303 -18.013306 0.37324604
-11.242932 -18.188908 0.37325448
-12.214221 -17.611786 0.37411928
-11.774292 -17.864506 0.37347129
-13.118227 -17.075022 0.37585169
-12.746332 -17.29656 0.37504768
-12.42381 -17.482792 0.37436986
-14.077917 -16.520458 0.37886453
-13.747843 -16.717394 0.37781167
-13.376923 -16.919571 0.37648734
-14.729211 -16.139503 0.38140538
-14.287084 -16.389639 0.37952653
-15.612722 -15.614268 0.38542637
-15.255961 -15.825333 0.38369843
-14.979551 -15.985748 0.38239318
-16.601639 -15.049473 0.39112827
-16.244621 -15.253891 0.38897729
-15.843899 -15.426518 0.38599578
-17.51259 -14.507337 0.39694607
-17.223955 -14.679581 0.39503199
-16.847147 -14.898248 0.39256468
-18.174353 -14.116844 0.40169567
-17.775703 -14.355201 0.39882672
-17.498507 -14.49747 0.39664665
-19.119625 -13.567514 0.40922442
-18.749031 -13.779111 0.40614933
-18.416933 -13.968305 0.40347242
-20.0739 -13.016584 0.41760871
-19.73604 -13.212729 0.41457531
-19.373066 -13.41559 0.41132396
-20.725117 -12.634461 0.42368585
-20.287996 -12.890096 0.41956538
-21.681713 -12.080552 0.4332388
-21.273827 -12.317342 0.42909396
-20.975222 -12.487802 0.42609856
-22.60148 -11.551186 0.44304982
-22.249903 -11.75034 0.43921492
-21.898304 -11.947441 0.43542629
-23.228539 -11.183624 0.45000803
-22.817282 -11.421132 0.4453879
-11.556 -18.052568 1.123338
-11.259231 -18.23708 1.1232716
-12.503947 -17.501442 1.1272538
-12.247757 -17.634014 1.1252246
-11.825629 -17.88361 1.1236333
-13.166638 -17.105536 1.1312958
-12.778524 -17.323061 1.1281716
-12.484282 -17.490576 1.1261941
-14.107779 -16.554483 1.1399013
-13.749353 -16.758947 1.136101
-13.435231 -16.936256 1.1329583
-15.027201 -16.015076 1.1509415
-14.746984 -16.177807 1.1472642
-14.336041 -16.419809 1.1423739
-15.662656 -15.62231 1.1593738
-15.275269 -15.865784 1.1542516
-16.624577 -15.081614 1.1763626
-16.249935 -15.301117 1.1697773
-15.854543 -15.474454 1.1610789
-17.580969 -14.523268 1.1951005
-17.248005 -14.717639 1.1883104
-16.878099 -14.931889 1.1810225
-18.227823 -14.137464 1.2089493
-17.795639 -14.39419 1.1995426
-19.155018 -13.603705 1.2312931
-18.773895 -13.817986 1.2216927
-18.477667 -13.988585 1.214582
-20.106659 -13.053768 1.2563508
-19.719986 -13.27678 1.2459095
-19.434927 -13.435149 1.2382269
-21.029524 -12.517894 1.2825842
-20.749237 -12.67927 1.2743967
-20.321564 -12.923767 1.2621467
-21.677019 -12.146298 1.3022462
-21.289574 -12.366505 1.2903301
-22.676044 -11.571222 1.3341923
-22.240128 -11.817853 1.3199115
-21.930992 -11.988554 1.3098741
-23.560272 -11.059878 1.3640219
-23.27533 -11.219613 1.3541498
-22.889179 -11.442698 1.3411243
-23.802902 -10.914938 1.3723624
-11.616907 -18.063412 1.8789651
-11.245533 -18.296841 1.8789926
-12.576557 -17.515194 1.8865019
-12.242229 -17.696318 1.8826497
-11.84126 -17.927235 1.879707
-13.208234 -17.131304 1.892589
-12.795908 -17.373871 1.8878279
-14.161241 -16.577936 1.9075335
-13.740727 -16.82229 1.9003721
-13.428396 -16.987427 1.8944817
-15.059733 -16.059069 1.926127
-14.734336 -16.242306 1.9186625
-14.385964 -16.439516 1.9112279
-16.00873 -15.505723 1.9498539
-15.705235 -15.644004 1.9394362
-15.330076 -15.888037 1.9316067
-16.699306 -15.099073 1.9696939
-16.275852 -15.34232 1.9569223
-15.989632 -15.492575 1.9478525
-17.571547 -14.580132 1.9976181
-17.269102 -14.760369 1.9875908
-16.916607 -14.970543 1.9763325
-17.671885 -14.497136 1.9997668
-17.660646 -14.540444 2.0014195
-18.527361 -14.019814 2.0327115
-18.250391 -14.181038 2.0221052
-17.840614 -14.426946 2.0073493
-19.207684 -13.630832 2.0606391
-18.779959 -13.87035 2.042613
-20.130312 -13.099016 2.1012263
-19.742157 -13.319426 2.0835929
-19.427107 -13.487297 2.0691056
-21.065889 -12.56354 2.1459186
-20.734243 -12.743468 2.1292849
-20.392092 -12.945462 2.1132233
-22.018118 -12.008658 2.1942122
-21.723272 -12.178109 2.1788454
-21.335804 -12.39434 2.158767
-22.708282 -11.607568 2.2312453
-22.25658 -11.870374 2.206862
-21.991819 -11.996304 2.1916764
-23.622755 -11.082066 2.2828529
-23.244894 -11.298895 2.2612195
-22.918682 -11.478747 2.242557
-24.143555 -10.807774 2.314271
-23.892595 -10.918531 2.2982619
-11.097435 -18.540833 2.6531587
-11.663944 -18.078276 2.6416821
-11.254011 -18.320957 2.64011
-12.583704 -17.529255 2.6495104
-12.232275 -17.74102 2.6460211
-11.889544 -17.942944 2.6429234
-13.509785 -17.005848 2.6667552
-13.250509 -17.13755 2.6599197
-12.824158 -17.382771 2.6523747
-14.157964 -16.607283 2.6795814
-13.773317 -16.840199 2.6712778
-13.489857 -16.994616 2.6641502
-15.109932 -16.05781 2.7072983
-14.785005 -16.244858 2.6971288
-14.437623 -16.441574 2.6866305
-16.035656 -15.521433 2.7401738
-15.721416 -15.664122 2.7250416
-15.339488 -15.926555 2.7150793
-16.706713 -15.128881 2.7674615
-16.288155 -15.365291 2.7494147
-17.658941 -14.572804 2.8112438
-17.284431 -14.785445 2.7928772
-16.924461 -14.984474 2.7755096
-18.584431 -14.026733 2.8588805
-18.248743 -14.218686 2.8405733
-17.880394 -14.434621 2.8215654
-19.509958 -13.506658 2.9135621
-19.244328 -13.644764 2.8966224
-18.825474 -13.883548 2.872134
-20.169338 -13.112848 2.9538901
-19.781309 -13.331452 2.9290051
-19.493134 -13.495922 2.9111125
-20.699013 -12.802216 2.9883814
-20.442801 -12.943356 2.9708633
-11.062548 -18.574392 3.4241407
-11.673541 -18.115261 3.4133527
-11.267782 -18.358051 3.4117088
-12.612065 -17.558649 3.424098
-12.227978 -17.783142 3.4182701
-11.9423 -17.945593 3.4141562
-13.534307 -17.019829 3.444088
-13.25029 -17.180891 3.4365318
-12.83709 -17.424059 3.4278395
-14.205026 -16.627687 3.46382
-13.789803 -16.866568 3.4506838
-15.121353 -16.088728 3.4970589
-14.739264 -16.316685 3.4826822
-14.429097 -16.488747 3.4703147
-21.119389 -12.564537 3.0173609
-20.906357 -12.69145 3.0029459
-22.077702 -12.017876 3.0864015
-21.75037 -12.199877 3.0620661
-21.344015 -12.430706 3.0327909
-23.000875 -11.502921 3.1576347
-22.727068 -11.63718 3.1351125
-22.284557 -11.892794 3.1014988
-23.641632 -11.114485 3.2076252
-23.27594 -11.321097 3.1780882
-22.984659 -11.492084 3.1552525
-24.606567 -10.553318 3.2874784
-24.22036 -10.77663 3.2550173
-23.935453 -10.938015 3.2312241
-25.527088 -10.01346 3.3668501
-25.24802 -10.177492 3.3424976
-24.809595 -10.431273 3.3045743
-26.215734 -9.6146517 3.4285731
-25.798151 -9.8543663 3.3908706
-26.739084 -9.3176079 3.4768057
-26.46283 -9.4759874 3.4512744
-15.215757 -16.049404 3.5027974
-16.05831 -15.557477 3.5412619
-15.732884 -15.703844 3.5208328
-15.385218 -15.938978 3.5087202
-17.008245 -15.004323 3.592253
-16.717897 -15.167353 3.5752907
-16.330324 -15.388137 3.5539138
-17.671316 -14.613268 3.6319315
-17.253922 -14.855018 3.6061347
-16.993099 -14.995017 3.5894799
-18.641352 -14.045876 3.6968191
-18.228739 -14.284858 3.6681149
-17.94186 -14.443112 3.6480625
-19.573006 -13.515329 3.7673106
-19.249454 -13.698016 3.7420363
-18.821934 -13.938199 3.7095368
-20.225563 -13.135324 3.8197463
-19.825533 -13.369949 3.7874265
-21.155819 -12.603012 3.9002953
-20.77622 -12.819051 3.8666534
-20.47517 -12.986549 3.8402336
-22.109634 -12.055596 3.9885824
-21.720827 -12.278245 3.9519022
-21.436945 -12.436348 3.9252787
-22.203903 -11.989021 3.9966569
-27.159935 -9.0757771 3.5160923
-26.987911 -9.1889076 3.500504
-28.055538 -8.5581989 3.60151
-27.756351 -8.7264881 3.5725517
-27.391134 -8.9417849 3.5378876
-29.010969 -8.0079842 3.6953084
-28.720181 -8.1704378 3.6663489
-28.332899 -8.3910303 3.6282139
-29.539055 -7.6944818 3.7479758
-29.229959 -7.8749084 3.7169762
-28.99762 -7.9981666 3.693413
-30.619793 -7.0756025 3.8587165
-30.221178 -7.3023181 3.8175056
-29.952345 -7.4605756 3.7900188
-31.580233 -6.5201402 3.9593439
-31.223572 -6.7246265 3.9217055
-30.877207 -6.9206991 3.8853219
-31.787455 -6.3927321 3.9811633
-11.085773 -18.555328 4.2014742
-12.007763 -18.004879 4.2067199
-11.725599 -18.154888 4.2011113
-11.335947 -18.390888 4.1994371
-12.654995 -17.604023 4.2143617
-12.278868 -17.829309 4.2081571
-11.990717 -17.994308 4.2031693
-13.611243 -17.057575 4.2419109
-13.263849 -17.254591 4.2305346
-12.897026 -17.448788 4.2176514
-14.532223 -16.518517 4.2765822
-14.245697 -16.67651 4.263411
-13.850422 -16.901848 4.2476616
-15.169306 -16.142233 4.3058534
-14.776276 -16.366724 4.2861958
-16.126858 -15.584828 4.3593593
-15.737504 -15.780807 4.3322287
-15.428089 -15.985704 4.31844
-17.086657 -15.031285 4.4235678
-16.756781 -15.214637 4.3995867
-16.383137 -15.425674 4.3740501
-18.006886 -14.504867 4.494513
-17.725025 -14.656871 4.4708509
-17.326826 -14.885131 4.4402118
-18.075859 -14.442665 4.4974189
-17.982412 -14.491205 4.4891443
-23.033924 -11.52085 4.0791044
-22.751183 -11.681721 4.0507345
-22.36862 -11.90556 4.0134192
-23.709524 -11.132393 4.1486025
-23.281345 -11.375292 4.1040525
-24.677256 -10.574724 4.2522569
-24.242142 -10.82508 4.2050347
-23.969542 -10.980522 4.1757984
-25.564545 -10.06429 4.3515067
-25.231812 -10.252432 4.3136997
-24.891876 -10.445097 4.2755303
-26.52088 -9.5104694 4.4624186
-26.223915 -9.6808071 4.4274802
-25.881224 -9.8730917 4.3873544
-26.700809 -9.4088783 4.483891
-32.227654 -6.1365871 4.0281825
-31.975323 -6.2921028 4.00137
-32.762009 -5.8249612 4.0857639
-32.48476 -5.9888654 4.0558205
-18.669523 -14.111432 4.5490613
-18.277245 -14.332748 4.5149202
-19.617901 -13.562172 4.6358767
-19.245443 -13.778937 4.6009607
-18.939264 -13.94273 4.5714498
-20.580311 -13.018559 4.7336111
-20.250013 -13.200718 4.6987834
-19.843065 -13.429479 4.6574492
-21.223007 -12.640332 4.8016558
-20.787676 -12.889518 4.7545133
-22.138632 -12.109366 4.9050269
-21.776115 -12.319454 4.8633437
-21.476095 -12.48469 4.8286572
-22.738985 -11.775446 4.9775786
-22.43667 -11.936202 4.9400096
-27.21678 -9.1148252 4.5460629
-26.904562 -9.2954865 4.5084333
-28.127722 -8.5847816 4.6578774
-27.729288 -8.8191185 4.6086988
-27.429539 -8.9862728 4.5716157
-29.087036 -8.0329361 4.7793922
-28.7708 -8.2150307 4.7390003
-28.409498 -8.4220266 4.6931872
-30.011608 -7.5056009 4.8997669
-29.668062 -7.7000313 4.8547115
-29.321474 -7.8956017 4.8095074
-30.645082 -7.1342673 4.9835081
-30.223612 -7.378757 4.9275751
-29.993589 -7.4967785 4.8966594
-13.661319 -17.109217 5.0547352
-13.426517 -17.274853 5.0511808
-14.615016 -16.537388 5.0952916
-14.243918 -16.727587 5.0724449
-13.888878 -16.942644 5.0578661
-15.513331 -16.006273 5.1461558
-15.208018 -16.157747 5.1228876
-14.787241 -16.40877 5.099658
-16.221531 -15.586246 5.1936917
-15.73085 -15.815534 5.1500459
-15.481197 -15.989697 5.1382484
-17.152422 -15.064861 5.2704997
-16.768633 -15.260327 5.2346239
-16.393255 -15.45366 5.2012463
-17.607235 -14.829973 5.3147192
-17.387732 -14.90749 5.2877216
-23.112013 -11.558824 5.0230532
-22.955612 -11.651416 5.0039954
-24.075466 -11.013267 5.1462021
-23.739513 -11.197104 5.1020837
-23.339014 -11.425586 5.051126
-24.723537 -10.632714 5.2313957
-24.308975 -10.870901 5.1762104
-25.653297 -10.103059 5.3593125
-25.251869 -10.324983 5.3029752
-24.974569 -10.485686 5.2650871
-26.56428 -9.5775795 5.4889321
-26.252989 -9.7535162 5.443943
-25.940216 -9.9243994 5.3987002
-30.812481 -7.0394125 5.005959
-31.600536 -6.5833254 5.1125078
-31.258694 -6.7811399 5.0660801
-30.918327 -6.9741907 5.0200205
-32.578331 -6.0192022 5.2472315
-32.238644 -6.2152247 5.2001491
-31.877247 -6.420012 5.1502442
-32.723598 -5.9290719 5.2673087
-26.686741 -9.5122871 5.5070648
-27.568855 -9.0099068 5.6377654
-27.25634 -9.1759558 5.5903163
-26.858709 -9.4039679 5.5315909
-28.206934 -8.6319323 5.7338986
-27.813114 -8.8572159 5.6738892
-29.19618 -8.0650911 5.8877292
-28.730936 -8.331913 5.8148613
-28.469133 -8.4769421 5.7739444
-29.654146 -7.804812 5.9605603
-29.368652 -7.9560366 5.914465
-30.106131 -7.5516672 6.0333357
-29.946272 -7.6377831 6.0073123
-31.064714 -7.0167351 6.1904855
-30.710295 -7.1982403 6.131309
-30.355734 -7.4012136 6.0734339
-31.117525 -6.966135 6.1983352
10.395959 17.449518 -0.35454336
10.750316 17.250877 -0.35481074
11.103891 17.071983 -0.35548082
9.4818058 17.989487 -0.35495493
9.7572041 17.828602 -0.35476619
10.182287 17.591591 -0.3547976
8.878417 18.420948 -0.35693902
9.2283535 18.167561 -0.35569137
9.5120373 18.00672 -0.35546696
7.8734345 18.919624 -0.35770029
8.2638779 18.81246 -0.35866854
8.6586943 18.571665 -0.35767594
7.9023275 19.015419 -0.35943604
10.415222 17.473095 0.35506645
10.739036 17.293365 0.35533491
11.097549 17.102812 0.35587031
9.4900227 17.994368 0.35509694
9.7756958 17.843245 0.35514528
10.203273 17.601881 0.35513696
8.8383932 18.396597 0.35625675
9.2276907 18.167728 0.35568908
9.5127068 18.007715 0.35548818
7.8446226 18.953255 0.35805315
8.2517433 18.751894 0.3576172
8.6042328 18.552574 0.35697094
6.8791647 19.422674 0.35966331
7.2531381 19.221874 0.35862178
7.6532907 19.044827 0.35827181
6.367702 19.860233 0.36405247
6.6161895 19.620821 0.36143714
4.9866686 20.493881 0.3681595
5.2913718 20.342113 0.36689809
5.7501869 20.215406 0.36686876
6.0991402 20.048115 0.36577994
4.3623223 20.908632 0.37282571
4.7253652 20.680788 0.37029764
5.0150442 20.509674 0.36854476
3.4407966 21.446663 0.37914106
3.7565649 21.274746 0.37710738
4.1135287 21.07032 0.37472984
2.7816806 21.848864 0.38446039
3.2036166 21.601507 0.38118738
2.3912072 22.128668 0.38850772
2.5765257 22.01915 0.38696888
10.390148 17.442986 1.0640453
10.750258 17.239809 1.0648106
11.061772 17.067553 1.065912
9.4637804 17.978664 1.0647839
9.7473507 17.817846 1.0644221
10.162439 17.57649 1.0640436
8.7939425 18.370975 1.0674337
9.2089367 18.131798 1.0658088
7.8407612 18.926836 1.0736755
8.2449427 18.695154 1.0708624
8.5707054 18.513126 1.0691649
6.9140711 19.468029 1.0827143
7.2490492 19.279356 1.0794835
7.6157346 19.06251 1.0758119
6.2897472 19.891552 1.0933681
6.6751647 19.617237 1.0860028
5.3479538 20.40048 1.1052866
5.7509928 20.192453 1.1003524
6.0788631 20.019047 1.0964592
4.394208 20.946796 1.1216781
4.733705 20.750605 1.1154643
5.1058817 20.553947 1.1099322
3.4724247 21.480385 1.1403513
3.7514534 21.320766 1.134568
4.1414785 21.096497 1.1267377
2.7874868 21.879436 1.1559393
3.2229605 21.632448 1.1462445
3.5118179 21.504229 1.1419182
1.8412541 22.427345 1.1793324
2.2443256 22.198418 1.1693268
2.5784526 22.01997 1.1619062
0.9409802 22.946869 1.2036084
1.2430856 22.778551 1.1955779
1.6147779 22.573925 1.1860775
-0.013887061 23.494629 1.2313017
0.28874597 23.336193 1.2231107
0.70228863 23.101072 1.2112536
-0.69741589 23.904621 1.2533413
-0.25568727 23.661345 1.2401321
0.014012287 23.512735 1.2322506
-1.6136249 24.428699 1.283047
-1.2655685 24.243578 1.2723053
-0.90009451 24.044167 1.2609913
-2.5686617 24.989088 1.3165269
-2.2149451 24.793081 1.3045431
-1.875499 24.612465 1.2936343
-3.2148514 25.376316 1.3405588
-2.8011475 25.142553 1.3258315
-2.4954603 25.001287 1.3167727
-3.5955977 25.603716 1.3550036
-3.4250941 25.516193 1.3492438
11.144646 16.990805 1.7777472
10.341069 17.426662 1.7728848
10.742419 17.197229 1.7740363
11.127997 17.016273 1.7788168
9.4401846 17.9438 1.7738885
9.7682524 17.760118 1.7733907
10.113749 17.568947 1.7735856
8.4949217 18.495396 1.7806542
8.7933044 18.343824 1.7797931
9.203619 18.102066 1.7767106
7.8022618 18.903603 1.7892257
8.2215633 18.677208 1.7854066
8.5213289 18.511379 1.7828897
6.8899393 19.442242 1.8046399
7.2499671 19.250153 1.7997072
7.6019573 19.049416 1.7944292
5.9911737 19.994978 1.8261743
6.2736211 19.864059 1.8225359
6.6567793 19.602768 1.8112314
5.287365 20.38027 1.8421036
5.7485261 20.1591 1.8340399
6.0672674 20.014429 1.8297305
4.3429961 20.930592 1.8702151
4.7432442 20.697893 1.8578186
5.0779772 20.519661 1.849395
3.4467764 21.443523 1.9001517
3.7480013 21.275419 1.8900843
4.1162858 21.072302 1.8784435
2.4892991 21.994362 1.9365411
2.7875886 21.834545 1.9258183
3.2031763 21.600313 1.9104851
1.7974575 22.399607 1.9660456
2.2254102 22.165089 1.9489815
2.5171292 22.010647 1.9382358
0.99309593 22.837101 1.9998757
1.2669774 22.70859 1.9898757
1.5981574 22.543821 1.9772903
10.978792 16.988653 2.4835806
11.126554 16.917887 2.486249
10.28971 17.391926 2.4812696
10.727432 17.137566 2.4825346
11.006256 17.003317 2.4869571
9.3455849 17.931376 2.4828119
9.7513103 17.701084 2.4814758
10.07865 17.518049 2.4815536
8.4225674 18.481918 2.4938293
8.742115 18.297194 2.4899385
9.1183043 18.07612 2.485863
7.9521866 18.731752 2.4986553
8.2108173 18.607998 2.4973691
0.88586175 22.928043 2.0074487
1.0499754 22.865816 2.0026119
-0.074467927 23.486742 2.0548348
0.25833401 23.303455 2.0389497
0.66007185 23.073906 2.019547
-1.0073558 23.994724 2.1011157
-0.74940783 23.891785 2.0913174
-0.2952818 23.624426 2.0670633
-1.6432129 24.402111 2.1397612
-1.2502899 24.18017 2.118351
-0.93084943 24.012997 2.1024446
-2.6029696 24.952806 2.1949413
-2.2319431 24.751488 2.1742909
-1.8895983 24.567795 2.155761
-3.5210145 25.491131 2.2513609
-3.2468674 25.335583 2.2347326
-2.7863846 25.084616 2.2081444
-3.7144647 25.613115 2.264308
-3.4852207 25.507042 2.252311
11.23804 16.978827 2.5000277
7.488626 18.99478 2.5069742
7.7711911 18.861902 2.5048807
8.1165705 18.681559 2.5009542
6.8457599 19.39756 2.5257404
7.2464075 19.17597 2.5170963
7.5233107 19.013227 2.5106368
5.8944325 19.946329 2.5538383
6.250742 19.750307 2.5436811
6.6039486 19.551699 2.5339127
4.9821849 20.488615 2.5890107
5.2523904 20.333984 2.5787396
5.6639657 20.104132 2.5646236
4.2907119 20.891434 2.6187468
4.7117305 20.650034 2.6007254
5.0061579 20.503626 2.5914829
3.3454609 21.432055 2.6634285
3.756115 21.201008 2.6437688
4.0783682 21.01893 2.6289577
2.4435775 21.950195 2.7117879
2.7305386 21.798452 2.6974795
3.1195421 21.574875 2.6766105
1.4877554 22.494104 2.7679634
1.7792008 22.340433 2.7517738
2.2057424 22.102898 2.7274227
0.85123664 22.876457 2.8108554
1.2000749 22.677492 2.7883818
1.514894 22.509224 2.7700336
-0.11164068 23.441954 2.8783805
0.23233132 23.246847 2.854562
0.60328066 23.046331 2.8307254
-1.0737549 23.984829 2.9479203
-0.74061334 23.806347 2.9245238
-0.35383254 23.584103 2.896112
-1.6220077 24.311468 2.9917059
-1.2788352 24.130703 2.9670677
7.4657292 18.981184 3.230514
7.7483001 18.817797 3.2233129
8.1547356 18.581667 3.2140446
6.7907486 19.367157 3.2506297
7.2070251 19.130123 3.2378817
5.8411813 19.92642 3.2888758
6.250638 19.680887 3.2706807
6.5336361 19.519238 3.260148
4.938766 20.43988 3.3305359
5.2268734 20.282646 3.3174982
5.6041245 20.063644 3.2994187
3.9884932 20.99439 3.3846591
4.2803178 20.825212 3.3674281
4.6676641 20.609701 3.3469732
3.2954922 21.395426 3.4287343
3.7199552 21.151598 3.4015677
4.0062251 21.003025 3.3865285
2.3817656 21.919001 3.4920826
2.7479074 21.717176 3.4671624
3.0823319 21.527027 3.4443293
-1.7960086 24.419737 3.0064747
-2.6428926 24.903986 3.075007
-2.2497365 24.68185 3.0431416
-1.9263985 24.515385 3.0194016
-3.5986578 25.451647 3.1561759
-3.2352743 25.255201 3.1263463
-2.8976386 25.067169 3.0983598
-4.0971551 25.766245 3.2034481
-3.8165534 25.593388 3.1772671
10.791579 16.994747 3.9131818
9.9313765 17.488979 3.9093959
10.251738 17.321209 3.912534
10.616121 17.114874 3.914861
9.4665947 17.778753 3.9151928
9.7232504 17.632334 3.9140472
2.289814 21.984913 3.5009093
1.4211857 22.477718 3.5672336
1.7606641 22.283524 3.5404413
2.1227927 22.079725 3.5132287
0.49322221 22.996655 3.6431496
0.80054742 22.832378 3.6185939
1.1863123 22.615458 3.5869191
-0.15038279 23.385075 3.7039235
0.21922652 23.175762 3.6709044
0.51159155 23.005852 3.6446753
-1.1195426 23.94627 3.7968781
-0.76685852 23.741854 3.7623727
-0.40248448 23.547886 3.7302012
-2.0744627 24.48811 3.8924332
-1.7417712 24.304192 3.859333
-1.3406773 24.073952 3.8188717
-2.7220678 24.86812 3.9622917
-2.2649248 24.605417 3.9136405
-3.0712936 25.050741 3.9973602
-2.9687862 25.012348 3.9893675
-3.6833129 25.417772 4.0678544
-3.2572117 25.178688 4.0211892
-4.6054125 25.946428 4.1737585
-4.2474031 25.741413 4.132225
-3.9090438 25.555471 4.0946817
-5.5284667 26.479376 4.2843585
-5.2501435 26.319666 4.2507982
-4.8470373 26.093969 4.2035933
-5.7288599 26.601446 4.3098741
8.1691704 18.452206 4.6588864
7.3991561 18.954689 4.69767
7.7262645 18.796618 4.6920028
8.1503201 18.61739 4.6920476
6.4754195 19.485924 4.7405705
6.7623897 19.321768 4.7262278
7.198679 19.07445 4.7069478
5.8009615 19.881496 4.7814965
6.2034678 19.65107 4.7576303
6.509088 19.506403 4.7475176
4.8413057 20.429789 4.847271
5.2853665 20.182835 4.8168406
5.5686994 20.040903 4.8021173
3.9395592 20.949453 4.92136
4.2454934 20.796392 4.9003425
4.6526875 20.566992 4.8683038
3.3458028 21.318163 4.9819727
3.6945992 21.135565 4.9536204
3.275975 21.449747 5.009562
