# .PCD v0.7 - Point Cloud Data file format
VERSION 0.7
FIELDS x y z
SIZE 4 4 4
TYPE F F F
COUNT 1 1 1
WIDTH 1555
HEIGHT 1
VIEWPOINT 0 0 0 2.98023e-07 1 0 -0
POINTS 1555
DATA ascii
19.232203 3.8115163 1.4266002
19.144827 3.8822558 1.4044137
19.170845 4.1131997 1.4168345
19.087976 4.5860977 1.404719
19.060072 4.9077878 1.4039818
19.033974 4.9233904 1.3971596
19.002584 5.2144508 1.3945295
18.924404 5.7166882 1.3829677
18.889477 6.0079818 1.378878
18.864685 6.0216599 1.372304
18.829414 6.3229256 1.3680471
18.760454 6.8433914 1.3580327
18.74826 7.0756602 1.3585386
18.687691 7.4315062 1.3474352
18.574881 7.9503245 1.3239762
18.44426 8.2530127 1.2919786
18.411509 8.509284 1.286359
18.332439 9.0102816 1.2708187
18.296261 9.302906 1.2643423
23.270773 -24.142405 1.9920114
23.330772 -24.070494 2.0148432
23.246088 -23.763254 2.0064781
23.172218 -23.311939 2.0098395
23.152555 -23.031872 2.020016
23.089628 -22.77532 2.0153878
19.850086 -0.99089491 1.4508185
19.709887 -0.47311527 1.4315127
23.034985 -22.546749 2.011692
22.968533 -22.176043 2.0125382
22.956402 -21.963427 2.0210621
22.875891 -21.554443 2.0196891
22.81592 -21.121576 2.026006
22.800034 -20.830116 2.0378056
22.729053 -20.44997 2.0375865
22.641518 -19.990345 2.0367334
22.634483 -19.758427 2.0477583
22.55551 -19.294367 2.0496836
22.488329 -18.915224 2.0503838
22.455645 -18.656593 2.0548851
22.400705 -18.214226 2.0628157
22.303795 -17.815384 2.05528
22.276619 -17.523371 2.0632262
22.214342 -17.088837 2.0682425
22.160416 -16.716663 2.072295
22.142725 -16.479536 2.0799727
22.047539 -15.973186 2.0785911
22.051785 -15.673949 2.0963554
21.979658 -15.610278 2.0776374
21.96616 -15.363558 2.086998
21.861423 -14.873366 2.0815177
21.854235 -14.565243 2.0960612
21.801432 -14.513481 2.0826261
21.767103 -14.265692 2.0854845
21.705317 -13.783046 2.0925219
21.670546 -13.463694 2.0989869
21.643209 -13.452534 2.0911846
21.607748 -13.159357 2.0959649
21.527012 -12.658615 2.0978212
21.488842 -12.364273 2.1016972
21.468922 -12.354486 2.0960996
21.428421 -12.0585 2.0992773
21.344101 -11.556889 2.0997298
21.316391 -11.26081 2.1066904
21.282612 -11.251574 2.0968113
21.274826 -10.94611 2.1102879
21.191481 -10.450969 2.1103237
21.162302 -10.210113 2.1137645
21.094753 -9.8435259 2.1118116
21.012596 -9.3505363 2.1117008
20.983496 -9.104496 2.115226
20.921221 -8.726222 2.1151655
20.838541 -8.2487144 2.1136954
20.849857 -8.0115776 2.1289277
19.911242 -1.8255196 2.1308277
19.992559 -1.8297864 2.1555088
19.859045 -1.68135 2.1211662
19.83029 -1.4363382 2.123028
19.749702 -0.94321549 2.1196661
19.688101 -0.58068836 2.1163356
19.660027 -0.31933615 2.1188374
19.574652 0.15963429 2.1128802
19.507902 0.51933742 2.1074662
19.48163 0.78303909 2.1103427
19.420437 1.272357 2.1117117
19.386602 1.5660079 2.1133227
19.360744 1.5798433 2.105958
19.327044 1.9033213 2.1087062
19.26141 2.3727832 2.1074188
19.240959 2.6240187 2.1111562
19.185843 2.6802623 2.0964739
19.180538 2.9856565 2.1069078
19.080494 3.4898174 2.095947
19.056364 3.7315612 2.0979416
19.007467 3.7812243 2.0848405
18.99724 4.0888038 2.0935631
18.916769 4.5832977 2.0877593
18.88825 4.828516 2.0883148
18.823286 5.1925178 2.0820608
18.742773 5.6855965 2.0757351
18.715271 5.9309316 2.0763907
18.636568 6.3087983 2.0660844
18.574831 6.7558322 2.0634382
18.553059 7.0697889 2.0681553
18.495823 7.4204206 2.0631652
18.406105 7.8550644 2.0510705
18.389383 8.1361856 2.0559411
18.32357 8.5223494 2.0492923
18.230148 8.9816399 2.0365729
18.220158 9.2385855 2.0424836
18.059813 9.3603897 1.9970702
18.19746 9.4534578 2.0429571
22.747768 -22.545189 2.9681113
22.699802 -22.236366 2.9625928
22.664366 -21.974691 2.959708
22.598186 -21.588453 2.9507749
22.538654 -21.166117 2.9454184
22.499876 -20.871296 2.942662
22.440174 -20.465616 2.9367657
22.382542 -20.062201 2.9315412
22.349066 -19.796444 2.9296651
22.280245 -19.342844 2.9225461
22.21756 -18.960079 2.9150209
22.183357 -18.695229 2.9129782
22.112179 -18.24197 2.9052377
22.058237 -17.894182 2.8995798
22.026846 -17.576109 2.9005795
21.957912 -17.114735 2.8941236
21.898512 -16.750639 2.8873818
21.872627 -16.508362 2.8875971
21.799429 -16.032228 2.8804703
21.74621 -15.688201 2.8752677
21.709871 -15.388351 2.8742309
21.630119 -14.907623 2.8653059
21.603575 -14.603058 2.8679171
21.583174 -14.590928 2.8614008
21.542974 -14.298211 2.8589456
21.475302 -13.830343 2.8539419
21.435814 -13.503604 2.8531797
21.413002 -13.491928 2.8458219
21.377737 -13.19642 2.8453553
21.304567 -12.687983 2.8403869
21.266651 -12.40462 2.8386641
21.210793 -12.110192 2.8312953
21.131664 -11.585661 2.8252916
21.094503 -11.30967 2.8237345
21.051947 -10.979702 2.8226049
20.974174 -10.487268 2.8161497
20.944344 -10.238644 2.8161936
20.881344 -9.8773012 2.8096085
20.806215 -9.4154329 2.8031747
20.775534 -9.1357841 2.8044453
20.713947 -8.7629995 2.7991426
20.646902 -8.2963982 2.7960942
20.619425 -8.0329914 2.7980242
20.552675 -7.6492133 2.7917597
20.482059 -7.1943083 2.7874053
20.444918 -6.9327202 2.7861779
20.390909 -6.5269513 2.7856445
20.354465 -6.214838 2.7870703
19.719227 -1.918278 2.7701824
19.660734 -1.7131648 2.7601297
19.632612 -1.4675122 2.7625842
19.56135 -0.97749847 2.7624238
19.532003 -0.66354489 2.7680407
19.509867 -0.65282047 2.7609658
19.472818 -0.36081573 2.7629452
19.392834 0.13931985 2.7608302
19.354044 0.43672451 2.7626925
19.333973 0.44846565 2.7563965
19.291985 0.74146968 2.7570426
19.221136 1.2413465 2.7585869
19.186304 1.5327698 2.7618101
19.159628 1.5481493 2.7534537
19.124189 1.8822182 2.7588172
19.057739 2.3320546 2.7597499
19.033281 2.5927138 2.7651889
18.9641 2.9563899 2.7608781
18.884153 3.4488807 2.7599273
18.845469 3.6964586 2.7600415
18.790043 4.0580049 2.7606919
18.714624 4.518239 2.759999
18.682913 4.7983632 2.7645211
18.617802 5.1581235 2.7620971
18.536924 5.6517782 2.7618239
18.507191 5.9025159 2.7656388
18.442902 6.290967 2.7654343
18.367853 6.7520242 2.7657528
18.343798 7.0053167 2.7718608
18.277054 7.385622 2.7706778
18.203884 7.8403821 2.7716544
18.163427 8.1011934 2.7727976
18.105659 8.4677343 2.7741816
18.038403 8.9123707 2.7769265
18.00602 9.1685295 2.7807391
23.074717 -24.683008 3.0053213
23.046808 -24.442228 3.0040965
23.011215 -24.178392 3.0010693
22.946751 -23.795578 2.9923623
22.873163 -23.339924 2.9831083
22.839802 -23.075764 2.9809291
22.79002 -22.805782 2.9733958
22.475237 -22.495949 3.9309318
22.441452 -22.312454 3.9205651
22.408089 -22.048857 3.911341
22.340191 -21.595201 3.8917425
22.291967 -21.247561 3.8782558
22.265064 -20.960478 3.87202
22.190014 -20.460043 3.8508973
22.139675 -20.107069 3.8371038
22.112814 -19.872192 3.8304927
22.037655 -19.36392 3.8100307
21.979231 -19.002373 3.7937865
21.952581 -18.753815 3.7877777
21.882275 -18.276176 3.769294
21.828775 -17.929663 3.7551031
21.80431 -17.645658 3.7508833
21.72891 -17.162119 3.7312739
21.702942 -16.85124 3.7272756
21.681883 -16.840353 3.7195699
21.647179 -16.544012 3.7121789
21.574467 -16.041847 3.6947014
21.542152 -15.755642 3.6883292
21.507551 -15.735176 3.6757176
21.485405 -15.428655 3.67377
21.414068 -14.932886 3.6575274
21.372267 -14.648376 3.6480436
21.335381 -14.325258 3.6414781
21.261106 -13.854179 3.6244402
21.228975 -13.583711 3.6188025
21.174046 -13.222156 3.606982
21.096216 -12.726831 3.5901637
21.065313 -12.482141 3.5848777
21.011116 -12.122227 3.5740349
20.933956 -11.626723 3.5585248
20.913376 -11.337841 3.5590029
20.854536 -10.991039 3.5468509
20.786612 -10.537045 3.5347488
20.751549 -10.273939 3.5295885
20.694803 -9.9009762 3.519877
20.620569 -9.4344177 3.5069036
20.586071 -9.1712141 3.5026345
20.526167 -8.7713308 3.4936371
20.470631 -8.3585482 3.4871066
20.437262 -8.0964966 3.4839246
20.370684 -7.6417809 3.4755168
20.308529 -7.25948 3.4664509
20.273687 -6.9948764 3.4635539
20.205132 -6.5411201 3.455657
20.136795 -6.1538439 3.4455476
20.107517 -5.8677678 3.4465079
20.04808 -5.4137082 3.4435177
19.981554 -5.0515795 3.4341645
19.953453 -4.8032393 3.4347417
19.878912 -4.3122225 3.4290714
19.811886 -3.9472938 3.420805
19.78002 -3.7013979 3.4206095
19.700005 -3.2090509 3.4144838
19.637606 -2.8474605 3.409004
19.618244 -2.5848053 3.4152846
19.552576 -2.0957856 3.4161019
19.516565 -1.8016856 3.4182425
19.497597 -1.7914751 3.4115305
19.461189 -1.4949934 3.4139757
19.387617 -1.0059477 3.4133527
19.343958 -0.70425749 3.4139538
19.285477 -0.3931919 3.4097669
19.202566 0.12422416 3.4088881
19.164679 0.39671317 3.4109221
19.137154 0.41336399 3.4014242
19.118475 0.73954296 3.414418
19.047569 1.2126707 3.417021
19.011497 1.4582838 3.4188859
18.950026 1.8209261 3.4189007
18.872831 2.3136475 3.4218805
18.834822 2.5609918 3.423887
18.777952 2.9354556 3.4275818
18.698975 3.4141695 3.4304249
18.661551 3.7029231 3.4363158
18.605652 4.0482793 3.4394684
18.534767 4.5017705 3.4449794
18.495342 4.7649636 3.4490752
18.429813 5.1483846 3.4523337
18.361956 5.5693636 3.457828
18.318068 5.8661928 3.463474
18.246094 6.2546659 3.4657376
18.188339 6.6780052 3.4763222
18.154001 6.9391794 3.4835613
18.079082 7.3913574 3.490669
18.011831 7.7788343 3.4959469
17.973507 8.0370789 3.5020852
17.898914 8.4915075 3.5105743
17.838818 8.8372784 3.5160434
17.793196 9.168066 3.5259433
17.771799 9.3435755 3.5323057
22.763556 -24.488977 4.0162878
22.738903 -24.25913 4.00945
22.669294 -23.802862 3.9883857
22.606237 -23.41617 3.9691508
22.576746 -23.156254 3.9610579
22.513178 -22.762449 3.9419279
21.012854 -13.712122 4.3874021
21.036537 -13.62193 4.3981013
20.989647 -13.202998 4.3828678
20.913759 -12.814804 4.3556681
20.915113 -12.528249 4.3598661
20.815783 -12.111496 4.3241878
20.743977 -11.68861 4.3005996
20.765762 -11.414475 4.3142877
20.68421 -10.992071 4.2877102
20.602068 -10.593735 4.2609611
20.586552 -10.34489 4.2596097
20.514627 -9.873188 4.23982
20.434589 -9.4938221 4.2151332
20.425726 -9.2427864 4.2177343
20.361132 -8.768177 4.2031488
20.365021 -8.4502563 4.2137771
20.27342 -8.3908901 4.1768298
20.295956 -8.1606741 4.1932344
20.211172 -7.6583247 4.1731806
20.199751 -7.3516674 4.1784902
20.135319 -7.2916994 4.1532593
20.131329 -7.0370178 4.1604519
20.046619 -6.5509052 4.142302
20.071209 -6.2556529 4.1639771
19.963873 -6.1885715 4.1210809
19.980684 -5.9119139 4.1393085
19.884802 -5.430325 4.1186996
19.907778 -5.2265372 4.1372476
19.81286 -5.124361 4.1014566
19.793106 -4.804028 4.1075721
19.705761 -4.2982707 4.0942965
19.671074 -4.0402331 4.0921578
19.643391 -4.0234809 4.0812378
19.62356 -3.766957 4.0857763
19.534916 -3.230772 4.0761576
19.499979 -2.9411685 4.0770059
19.465723 -2.9224286 4.0635052
19.461407 -2.5911083 4.0802464
19.389883 -2.1268299 4.0767784
19.385256 -1.8828363 4.0893316
19.281557 -1.8115145 4.0496883
19.30711 -1.5059505 4.0793099
19.223904 -1.0327127 4.0739975
19.234707 -0.80914277 4.0930538
19.140934 -0.41573605 4.079576
19.062878 0.046322208 4.0782404
19.041708 0.30613679 4.0875587
18.967417 0.71979189 4.0859885
18.890692 1.1386678 4.0845819
18.87463 1.3958403 4.097208
18.798157 1.8462077 4.0997915
18.730179 2.2322404 4.101707
18.730293 2.4823112 4.1218472
18.63685 2.9169807 4.1183438
18.545959 3.3414218 4.1159053
18.525921 3.5912271 4.1288443
18.445992 4.0635056 4.1365147
18.367672 4.4377079 4.137044
18.349972 4.6908875 4.1524248
18.26692 5.2014074 4.1645994
18.183613 5.5453563 4.1621156
18.171951 5.7842922 4.1797709
18.06735 6.2670355 4.1827364
18.006502 6.6369104 4.1935329
17.990215 6.9247499 4.2150693
17.915928 7.3698893 4.2288518
17.932966 7.6313663 4.2619476
17.832451 7.7364459 4.2316365
17.808693 8.0145855 4.2502379
17.740356 8.4428215 4.2664604
17.698275 8.777504 4.2841067
17.639954 8.8365803 4.2667036
17.647259 9.0930777 4.2965741
22.20134 -22.53009 4.8959246
22.180336 -22.362913 4.885489
22.163752 -22.099312 4.8757839
22.094702 -21.619431 4.8427691
22.092402 -21.298117 4.8385577
22.038033 -20.961159 4.8134413
21.947723 -20.494953 4.7728558
21.959572 -20.242449 4.7756057
21.895849 -19.912834 4.7473578
21.81477 -19.413311 4.7111673
21.839172 -19.19928 4.7198267
21.747156 -19.094149 4.6818342
21.754265 -18.789894 4.6832271
21.669508 -18.29594 4.6466432
21.679947 -18.017862 4.6500092
21.55946 -17.949968 4.6005917
21.607241 -17.646845 4.6194425
21.528425 -17.164165 4.5864944
21.548203 -16.994722 4.5945091
21.456425 -16.544859 4.5569878
21.383152 -16.080894 4.5275245
21.39399 -15.891957 4.5324416
21.303398 -15.413692 4.4967031
21.209286 -15.003969 4.4596744
21.210384 -14.728118 4.4616642
21.144749 -14.312762 4.4372759
21.076447 -13.921484 4.4119782
21.096918 -13.794209 4.4215813
20.031294 -8.0926199 4.8601155
19.994833 -7.6917424 4.8534365
19.984869 -7.3889241 4.8571286
19.918451 -7.3300667 4.8279591
19.912975 -7.0651956 4.8333535
19.834061 -6.6013889 4.8116012
19.815784 -6.2832074 4.8141079
19.757151 -6.2249751 4.7889056
19.771929 -5.9612041 4.8056412
19.683971 -5.4688611 4.784152
19.663485 -5.2182102 4.7851095
19.603401 -5.1548681 4.7598376
19.582182 -4.8324347 4.7643776
19.507643 -4.3669038 4.7515907
19.458937 -4.069612 4.7436528
19.432514 -4.0537715 4.7321315
19.40374 -3.7617359 4.7339544
19.332695 -3.261749 4.7282434
19.310419 -3.0077956 4.7324018
19.259638 -2.9563882 4.7117372
19.261065 -2.6334136 4.7317896
19.187883 -2.1648121 4.7270255
19.172741 -1.9082152 4.7366495
19.098825 -1.5371264 4.7273202
19.023666 -1.0920051 4.7235823
18.999008 -0.80929673 4.7326584
18.926445 -0.4219501 4.7281275
18.848047 0.031951182 4.7271328
18.812128 0.29515269 4.7316608
18.755022 0.70984024 4.739624
18.685181 1.1363815 4.7438169
18.651808 1.3810905 4.749908
18.593174 1.7579765 4.7567816
18.520571 2.2065744 4.7648249
18.495956 2.4884491 4.7802401
18.422615 2.9286306 4.7893915
18.433552 3.2458982 4.8257365
18.326385 3.3040016 4.7827721
18.29657 3.5679877 4.7959723
18.222307 4.0371027 4.8108792
18.148882 4.407361 4.8168254
18.125715 4.6307645 4.8304324
18.053392 4.8367333 4.8202119
22.401588 -23.71245 4.9915762
22.342733 -23.48218 4.9648542
22.334398 -23.201822 4.9577684
22.257668 -22.746351 4.9211936
21.163305 -16.40797 5.3631816
21.125319 -16.149454 5.3418388
21.154228 -15.916444 5.351047
21.0529 -15.48042 5.2992272
20.978678 -15.05706 5.2603192
20.958958 -14.75768 5.2480011
20.895147 -14.359201 5.2152629
20.825006 -13.924322 5.1799288
20.820774 -13.685713 5.1764064
20.752251 -13.261683 5.1431842
20.677578 -12.851834 5.1078491
20.669065 -12.584314 5.1035867
20.585991 -12.135347 5.0658131
20.524282 -11.742253 5.0384417
20.52302 -11.454188 5.0390649
20.455072 -11.015225 5.0105824
20.468056 -10.694375 5.0190892
20.378178 -10.634492 4.9783387
20.359665 -10.364573 4.9725304
20.291166 -9.9073572 4.9465208
20.217752 -9.4912481 4.9186087
20.208801 -9.2837 4.9179225
20.147501 -8.7914057 4.898634
20.147032 -8.4907265 4.904613
20.084005 -8.4298277 4.8767505
20.077942 -8.1864243 4.8795376
18.121433 4.7631207 4.8428545
18.045034 5.128655 4.8487058
17.975405 5.4707284 4.8556614
17.944702 5.7514753 4.8738546
17.847713 6.2289186 4.8857031
17.787376 6.6039047 4.9029279
17.761068 6.8803854 4.9242377
17.696083 7.3251348 4.9492984
17.656015 7.6476908 4.9711437
17.619888 7.668613 4.9577661
17.581949 7.9530764 4.9764996
17.494534 8.4951115 5.0065036
17.465118 8.7417936 5.0250854
17.426193 8.7557983 5.009872
17.418074 9.0002708 5.0378881
21.910234 -22.467699 5.8583465
21.90074 -22.444189 5.8533812
21.876743 -22.1544 5.8326635
21.813805 -21.654654 5.7880039
21.833412 -21.417717 5.7885261
21.737669 -21.309593 5.7432165
21.761391 -21.046925 5.7449756
21.688433 -20.535217 5.6968727
21.689991 -20.309956 5.6906333
21.588299 -20.210951 5.6430831
21.634342 -19.945936 5.6554332
21.54908 -19.459949 5.6040559
21.559017 -19.144526 5.5998054
21.486752 -18.84903 5.5601935
21.404896 -18.36418 5.5117946
21.387243 -18.042461 5.4962974
21.331991 -17.691578 5.4638324
21.260265 -17.201565 5.4214945
21.250809 -17.0042 5.4133253
21.216183 -16.653852 5.3912411
20.353537 -12.15771 5.813952
20.30547 -11.818522 5.78619
20.27474 -11.511583 5.7681346
20.217564 -11.031081 5.736598
20.16507 -10.670234 5.7090616
20.138693 -10.422159 5.6956215
20.066925 -9.9269829 5.6603689
20.00757 -9.5497189 5.6322222
19.99011 -9.3359833 5.6249952
19.917023 -8.8232203 5.5931835
19.861551 -8.4619131 5.5698404
19.842297 -8.2149162 5.5640526
19.76948 -7.6971025 5.5368981
19.748083 -7.408905 5.5323305
19.72061 -7.3911963 5.518805
19.686216 -7.0941291 5.5087686
19.61738 -6.6024499 5.4875612
19.584301 -6.3071561 5.4799318
19.567501 -6.2976074 5.4716954
19.533239 -6.0007277 5.4644547
19.461542 -5.5103192 5.4463387
19.426117 -5.2074294 5.4406185
19.397976 -5.1943817 5.4268284
19.377132 -4.8977146 5.4292507
19.291639 -4.3955235 5.4094877
19.255421 -4.1039214 5.4057879
19.209616 -3.7630072 5.4009109
19.135338 -3.2883966 5.3903308
19.101717 -3.0415406 5.3881364
19.047153 -2.679636 5.3834939
18.969725 -2.1876988 5.3772793
18.940048 -1.9394426 5.3797073
18.884027 -1.5860069 5.3773975
18.816181 -1.1012208 5.380435
18.781677 -0.83681095 5.3843098
18.714685 -0.45242798 5.3826747
18.642157 -0.0003746252 5.3855095
18.602831 0.26580578 5.3898029
18.540073 0.64690775 5.3939233
18.472095 1.0686579 5.4005804
18.438307 1.3839003 5.4152126
18.377638 1.7636231 5.4241123
18.30011 2.1730673 5.4288864
18.267874 2.4353433 5.4414787
18.18928 2.8889341 5.453342
18.117132 3.2730319 5.4618735
18.087091 3.5220535 5.4764171
18.006865 4.0099411 5.4958701
17.9419 4.3720913 5.5087838
17.904957 4.6528196 5.526207
17.824955 5.1106763 5.5462637
17.758404 5.4760408 5.5620098
17.72168 5.7184849 5.5767632
17.632334 6.1848025 5.5972037
17.578287 6.5350633 5.6198325
17.538696 6.832202 5.6428618
17.450495 7.3434777 5.6741481
17.413725 7.6172023 5.6965475
17.391207 7.6284852 5.6874628
17.349924 7.9200335 5.7110496
17.262564 8.4187508 5.7445717
17.218245 8.7085934 5.7677836
17.189985 8.8234119 5.7721076
22.024973 -23.246115 5.9367738
21.955412 -22.757565 5.8884697
21.961971 -22.512671 5.88238
21.939432 -22.436041 5.869854
21.027786 -17.672771 6.3001633
21.000652 -17.279985 6.2707348
20.975561 -17.012413 6.2479
20.923895 -16.667889 6.2096758
20.863695 -16.173023 6.1623373
20.833607 -15.875792 6.1374245
20.780672 -15.492587 6.0990825
20.723944 -15.055069 6.0579281
20.695972 -14.77975 6.0362978
20.64418 -14.355429 5.9995646
20.593636 -13.98762 5.965631
20.56356 -13.704714 5.9443941
20.5047 -13.267879 5.9064083
20.451866 -12.883199 5.8732715
20.419668 -12.619181 5.8530865
20.392962 -12.3789 5.8363318
19.701523 -8.6313 6.3056192
19.714642 -8.5439577 6.3133602
19.680794 -8.2304001 6.2974553
19.617485 -7.7493911 6.2684603
19.606876 -7.4977612 6.2665796
19.524067 -7.0796494 6.2290812
19.469225 -6.6686006 6.2084999
19.461128 -6.3843946 6.2117567
19.391325 -5.9967017 6.1852818
19.307436 -5.5120931 6.1560988
19.29262 -5.284493 6.1568356
19.208424 -4.8721938 6.1281061
19.132042 -4.4291787 6.1068473
19.111511 -4.2046223 6.1070366
19.04089 -3.7935712 6.090663
18.970865 -3.3387678 6.0790849
18.939592 -3.0760469 6.0785885
18.891363 -2.6731944 6.0793433
18.809601 -2.2380655 6.065609
18.809891 -1.9844283 6.0851936
18.729029 -1.5342925 6.0768342
18.655758 -1.1626658 6.067956
18.648859 -0.91821319 6.0858626
18.55702 -0.43717492 6.0799336
18.476885 -0.06186774 6.0723925
18.456615 0.19269975 6.0870275
18.399508 0.66441977 6.1052232
18.390978 0.97583604 6.1343598
18.313282 1.0331199 6.0983777
18.300373 1.2872719 6.1200695
18.217342 1.7716224 6.1313944
18.207769 2.0699947 6.162044
18.139174 2.1338131 6.1327305
18.126469 2.415988 6.1610169
18.044933 2.8572428 6.1734562
18.000048 3.1759489 6.1911726
17.941889 3.2391896 6.1684351
17.927536 3.4643891 6.1912165
17.848955 3.9873545 6.2216854
17.835693 4.2353239 6.2497563
17.77128 4.291749 6.2236176
17.744616 4.5977669 6.254046
17.65362 5.034317 6.2707305
17.16592 9.005374 5.7888894
21.103825 -18.361456 6.3670087
21.08054 -18.121002 6.3449841
21.055439 -17.935299 6.3247471
20.308971 -13.660238 6.720304
20.276533 -13.324088 6.6908188
20.230902 -12.922403 6.6528006
20.249353 -12.655793 6.6545181
20.164865 -12.200944 6.596343
20.154036 -11.866931 6.5821114
20.12282 -11.859357 6.5650897
20.130476 -11.558391 6.5626431
20.046459 -11.096783 6.5084238
20.064066 -10.854228 6.5140557
19.9736 -10.745633 6.4633493
19.962589 -10.442479 6.4536443
19.896339 -9.9653883 6.413178
19.880219 -9.7036057 6.4028349
19.8253 -9.6461983 6.3725829
19.820122 -9.3487396 6.3691006
19.763756 -8.8472681 6.3388243
19.765472 -8.6060705 6.3409204
19.759436 -8.4207668 6.3389039
18.862007 -4.1036801 6.7731967
18.832787 -3.7931664 6.7738705
18.781805 -3.4062212 6.7673779
18.765924 -3.1104388 6.7778282
18.704245 -2.6747308 6.772408
18.719816 -2.3611228 6.8058777
18.631639 -2.3389778 6.7547812
18.63726 -2.0536118 6.7816181
18.549187 -1.5662345 6.7713609
18.557951 -1.2706405 6.8037395
18.459309 -1.1987967 6.7516069
18.459272 -0.94890434 6.7759776
18.358593 -0.46589583 6.7652578
18.258951 -0.094819978 6.7458935
18.259657 0.11429081 6.7697024
18.182219 0.35537863 6.7513123
17.666231 5.1349134 6.2925496
17.636803 5.3348475 6.307404
17.575047 5.3882327 6.2831192
17.551208 5.6740737 6.314959
17.447966 6.184855 6.3417544
17.437059 6.4789381 6.3834739
17.368755 6.785264 6.3983011
17.279047 7.2774134 6.4340215
17.262714 7.4910078 6.4617739
17.163155 7.8815794 6.4778466
17.070395 8.3750067 6.5168328
17.044352 8.6509399 6.5525708
16.996552 8.9018049 6.5733471
19.591084 -9.1548347 7.0928392
19.499409 -8.8819027 7.0367818
19.473497 -8.5917387 7.0203013
19.443192 -8.5749836 7.002264
19.447815 -8.2298336 7.0054145
19.388786 -7.7557869 6.9729352
19.436171 -7.5247903 7.0034237
19.346796 -7.1313519 6.9556384
19.246901 -6.69627 6.9040051
19.289238 -6.4935851 6.934092
19.210482 -5.9643426 6.9016647
19.111916 -5.5627885 6.856039
19.126396 -5.3580418 6.872541
19.043341 -4.8937125 6.8423371
18.938829 -4.4750576 6.7995749
18.930914 -4.2434287 6.8070073
18.871771 -3.8024325 6.7967367
18.83123 -3.4142053 6.7965169
18.829815 -3.1376464 6.8143959
18.787107 -2.6566451 6.8234882
18.747824 -2.3897636 6.8204041
18.725794 -2.2123551 6.8214827
18.628723 -1.5434598 6.8209057
18.575348 -1.2347965 6.8175163
18.527679 -0.93354625 6.8183351
18.433981 -0.44462609 6.8123665
18.430672 -0.24550188 6.8314857
18.342663 -0.14813085 6.7897205
18.310017 0.14007562 6.8025179
18.218691 0.66462904 6.8095121
18.227365 0.90224713 6.8433785
18.122461 0.97405785 6.7903242
18.121433 1.2708853 6.8271952
18.039555 1.7394445 6.8402963
18.050781 2.0248835 6.8853178
17.953533 2.0597103 6.8331876
17.950319 2.3663552 6.8741932
17.833635 2.8589811 6.8773298
17.855444 3.097019 6.9252424
17.721472 3.1560609 6.8564296
17.760288 3.4781823 6.928237
17.661795 3.9320214 6.9426379
17.661816 4.1769567 6.9819965
17.564642 4.5453939 6.9869528
17.445034 5.0734253 7.0081253
17.500544 5.2377744 7.0680022
17.377619 5.6565771 7.0720263
17.260439 6.1392188 7.0930967
17.256104 6.428607 7.1439357
17.185328 6.7479572 7.1642299
17.209688 7.1440568 7.2529182
17.080902 7.143518 7.1813865
17.075607 7.4163065 7.2313418
16.993599 7.6320558 7.2281518
18.604322 -3.7138648 7.4632215
18.527086 -3.4109268 7.4333186
18.500259 -3.1693153 7.4330974
18.430399 -2.7537882 7.4196825
18.360769 -2.2992694 7.4123464
18.330206 -2.0379848 7.415812
18.286272 -1.6131401 7.4277706
18.228518 -1.2317122 7.4288282
18.197229 -0.97416627 7.4360151
18.116171 -0.51393515 7.4353771
18.036346 -0.13319843 7.4290676
18.025591 0.12093772 7.4535966
17.944798 0.61200768 7.4653611
17.877344 0.9751057 7.4713831
17.846588 1.2358975 7.4885402
17.760643 1.7436794 7.5082359
17.740877 2.0191741 7.537293
17.689571 2.0709839 7.5129361
17.668974 2.2861543 7.5336561
17.581514 2.8215404 7.5651283
17.538589 3.1191795 7.587883
17.512959 3.1313965 7.5739546
17.473471 3.45524 7.6050911
17.389008 3.8871305 7.628984
17.348198 4.2075977 7.6618185
17.317101 4.2269373 7.646214
17.284748 4.5397515 7.6846433
17.221701 4.8567872 7.7060738
17.072067 7.6366625 7.2723222
16.978764 7.9336996 7.2797914
16.88151 8.2854671 7.2970052
16.890026 8.5177374 7.3488493
16.807787 8.8402252 7.3702207
17.262403 4.8021655 7.7205248
17.188257 5.060874 7.7251582
17.166515 5.267292 7.7521982
17.084787 5.6692972 7.7828956
16.998407 6.0969343 7.8180223
16.965136 6.3623805 7.8531852
16.887592 6.7564363 7.8903589
16.796696 7.2059441 7.9335613
16.765894 7.4604468 7.9712949
16.691168 7.8166652 8.0068502
16.5996 8.2959661 8.0621529
16.569025 8.4982386 8.0909719
5.5266681 14.6057 -1.7827518
5.8624778 14.656757 -1.6736575
6.2723451 14.727643 -1.5403769
4.4796748 14.445783 -2.1236241
4.8239894 14.500031 -2.0113716
5.2927985 14.576773 -1.8586174
3.4645667 14.29302 -2.4550865
3.7909722 14.349133 -2.348208
4.2445884 14.415132 -2.2001696
2.4259696 14.136007 -2.7953477
2.7148175 14.189723 -2.7003291
3.1825211 14.260346 -2.547107
1.639696 14.010637 -3.0539103
2.1449916 14.105867 -2.8872626
2.4352498 14.156986 -2.7917531
0.61292189 13.901814 -3.3910389
1.0935482 13.95596 -3.2329946
1.4265213 14.016009 -3.1230114
-0.43842483 13.806723 -3.7369857
0.0075648245 13.860457 -3.5897112
0.38218614 13.933439 -3.4653738
-1.4216818 13.53057 -4.0669742
-1.0518277 13.686378 -3.9412513
-0.63158232 13.774208 -3.8011103
-1.6375165 13.543052 -4.1374807
-3.4422064 13.180591 -4.7424245
7.4106178 14.897981 -0.42809084
7.7174325 14.945778 -0.32345065
6.3640876 14.744523 -0.78379369
6.7136784 14.796206 -0.66504115
7.1592898 14.863188 -0.51346546
5.3181429 14.584211 -1.1387686
5.6568165 14.639655 -1.0236996
6.0930839 14.707498 -0.8755666
4.309134 14.441415 -1.4794641
4.6183395 14.479249 -1.3755373
5.0853357 14.555845 -1.2171607
3.2716212 14.280928 -1.8296044
3.5628316 14.3366 -1.7307402
4.0427847 14.399188 -1.5695126
2.23087 14.116311 -2.1799431
2.5487742 14.16582 -2.0730898
2.9883776 14.239499 -1.9248351
3.2775195 14.298493 -1.8265387
1.453324 14.009307 -2.4398689
1.921083 14.092081 -2.2823789
2.2378697 14.132677 -2.1766016
0.13879941 13.731781 -2.8840537
0.39076081 13.804648 -2.7977834
0.87318194 13.932909 -2.6331501
1.1995356 13.979117 -2.5242696
-0.91992259 13.568343 -3.2364657
-0.60016036 13.616505 -3.1302254
-0.14236669 13.699964 -2.9770083
0.14066042 13.772011 -2.8808467
-1.9626594 13.404469 -3.5824828
-1.6719824 13.45856 -3.4855983
-1.2069299 13.528559 -3.3314738
-3.0086863 13.23593 -3.9286048
-2.7184334 13.294047 -3.831948
-2.2432833 13.365201 -3.6750679
-1.952485 13.423978 -3.5779586
-3.5487967 13.175406 -4.1051421
-3.3009403 13.230599 -4.0223994
-2.9948146 13.265536 -3.922267
-4.2587814 13.271165 -4.3255467
4.1036482 14.353719 -0.85230058
4.2743106 14.379715 -0.79255736
2.9003592 14.11251 -1.2768325
3.3666825 14.255437 -1.1077975
3.8322482 14.320317 -0.94630402
1.9982964 13.941824 -1.5910655
2.345773 14.053477 -1.4656374
2.7794595 14.148255 -1.3131261
0.93068773 13.798832 -1.9534622
1.3010764 13.910701 -1.8218058
1.7095941 13.9811 -1.6814981
-0.0085804164 13.661475 -2.2702811
0.24497373 13.741042 -2.1807084
0.70303422 13.857874 -2.0211167
-0.82453942 13.63083 -2.5340345
-0.34259704 13.701014 -2.3732247
-0.052340634 13.753024 -2.2750297
-1.8691562 13.473526 -2.8803818
-1.4196275 13.543935 -2.7315183
-1.093187 13.591707 -2.6233606
-2.9142447 13.326887 -3.2220764
-2.447531 13.391651 -3.0699975
-2.1032565 13.446813 -2.9566534
-3.4661543 13.252337 -3.4007447
-3.1536067 13.292014 -3.299958
-4.5333562 13.073158 -3.7468441
7.1607256 14.811563 0.22968988
7.5830088 14.87432 0.38109389
7.9342251 14.932661 0.50791401
6.146874 14.660936 -0.1318876
6.5509725 14.718845 0.011713894
6.911303 14.779222 0.14095677
5.1092381 14.505605 -0.49917629
5.4769096 14.566364 -0.36877584
5.8756194 14.620885 -0.2281362
4.490643 14.41466 -0.71649665
4.8602238 14.472128 -0.58647609
8.7058525 14.976738 1.5644323
8.9936934 15.033175 1.6766608
9.4483643 15.101736 1.8517728
7.9409757 14.871639 1.2738501
8.43085 14.945623 1.4606005
8.7174177 14.998498 1.5715295
6.9255209 14.727424 0.89105296
7.3991513 14.797672 1.0694586
7.7084718 14.852083 1.1875955
5.9234128 14.575358 0.51633888
6.3552856 14.643744 0.67768592
6.6934776 14.697897 0.80462688
4.8709283 14.423122 0.12878643
5.2987013 14.486012 0.28583363
5.6573992 14.543969 0.4188368
3.8350856 14.267791 -0.24809147
4.2619696 14.331939 -0.093374833
4.6213703 14.393702 0.038594447
2.822068 14.123458 -0.61028296
3.2120683 14.188111 -0.47016913
3.5876117 14.236246 -0.33655965
1.7855017 13.96943 -0.97606272
2.1457655 14.025486 -0.84920514
2.5747931 14.097648 -0.69654799
0.74138021 13.821789 -1.3374482
1.1115876 13.863783 -1.2113925
1.5105952 13.908971 -1.0747937
-0.30242306 13.659935 -1.6944965
0.04043841 13.72243 -1.5765516
0.50613904 13.796826 -1.4168166
-1.3466845 13.490831 -2.0464139
-1.0017684 13.561334 -1.9287959
-0.53703374 13.634488 -1.7723252
-2.3542461 13.348284 -2.3771713
-2.0630012 13.406228 -2.2798152
-1.5880606 13.473572 -2.1238148
-1.3005121 13.545747 -2.0244632
-3.1154063 13.26479 -2.6198804
-2.6642621 13.327156 -2.4746244
-2.34322 13.377063 -2.3698704
-3.6713035 13.192697 -2.7966723
-3.3496952 13.236841 -2.6943088
-4.9000263 13.034168 -3.1813438
6.4178996 14.588968 1.443306
6.7149935 14.626229 1.5589747
7.1145558 14.687109 1.7170644
5.3950243 14.430337 1.0445033
5.6560769 14.477242 1.1468323
6.1369448 14.548478 1.3337088
4.3662386 14.260232 0.64856464
4.6496038 14.321868 0.75954449
5.1185598 14.395959 0.93942136
5.4105983 14.454586 1.0543194
3.6124477 14.174797 0.37013009
4.0595465 14.240604 0.53749496
4.3778033 14.289339 0.6577248
2.5805068 14.034153 -0.0084889084
3.0625696 14.098598 0.16717775
3.3796415 14.150949 0.2853305
1.2307632 13.720143 -0.51440036
1.5188354 13.867957 -0.39331505
1.9753779 13.942632 -0.22829945
2.3446927 14.010673 -0.092363112
0.54024392 13.739446 -0.73583311
0.95973879 13.775286 -0.59330022
1.3508235 13.837361 -0.45419574
-0.50219864 13.570762 -1.0977995
-0.13680287 13.638591 -0.97034663
0.291522 13.709507 -0.82118219
-1.5455116 13.407284 -1.4502884
-1.181108 13.470576 -1.3270161
-0.7511034 13.539149 -1.1813816
-2.5941052 13.258069 -1.7930759
-2.2400949 13.312786 -1.677524
-1.7963347 13.374616 -1.5325608
-3.6431365 13.108932 -2.1271636
-3.3073542 13.170116 -2.0187988
-2.8305783 13.236765 -1.866969
-3.8341506 13.104988 -2.1830957
9.4040661 15.029383 2.6397381
8.4734526 14.876656 2.258935
8.7856369 14.930961 2.3867245
9.2151232 14.993615 2.5612764
7.4079714 14.724046 1.8324767
7.7408333 14.779578 1.9663934
8.1683846 14.844016 2.1380737
7.2917962 14.72042 1.7885996
3.1187711 14.043331 0.8857758
3.4235454 14.092167 1.0036066
3.7355297 14.130935 1.1225357
2.3772886 13.940078 0.60656774
2.8460386 14.011837 0.78388995
3.1287911 14.064652 0.89385116
1.0073094 13.651778 0.084033906
1.3770744 13.789101 0.23602475
1.8218194 13.866723 0.40179133
2.1008708 13.905707 0.50463969
0.30054331 13.634908 -0.14956564
0.74642301 13.697302 0.0083922362
1.0855807 13.739507 0.1286539
-0.74013752 13.487486 -0.5104894
-0.26813409 13.553449 -0.34833187
0.067322142 13.605004 -0.23085034
-1.7729752 13.332603 -0.85924071
-1.3407297 13.40148 -0.71372187
-0.97803009 13.461905 -0.5896889
-2.795598 13.178168 -1.1937459
-2.3870206 13.23342 -1.062682
-2.0218337 13.29902 -0.9408167
-3.8441939 13.02437 -1.5245678
-3.4778891 13.084568 -1.40885
-3.0692918 13.139493 -1.2808714
-4.0373726 13.009971 -1.5814539
9.1428099 14.909332 3.3419955
8.1438913 14.770276 2.9157126
8.5973978 14.841269 3.110038
8.9491301 14.893634 3.26108
7.1827641 14.63727 2.5125296
7.5938134 14.692865 2.6839054
7.9513688 14.750556 2.835815
6.1644526 14.483317 2.0904818
6.5427613 14.549276 2.2482114
6.9211607 14.603449 2.4045246
5.140286 14.338514 1.6767544
5.4745889 14.390742 1.8119295
5.9315257 14.458762 1.9973819
4.1097412 14.180592 1.267194
4.448504 14.237681 1.4019608
4.8771896 14.306128 1.5730147
3.9420564 14.163941 1.2034347
-0.94259924 13.420011 0.095388159
-0.50758266 13.470977 0.24331364
-1.9852853 13.261805 -0.25833476
-1.5181054 13.337257 -0.10041343
-1.1745592 13.394794 0.017875433
-3.0207672 13.117373 -0.59264714
-2.5723174 13.183306 -0.44863984
-2.2216821 13.235602 -0.33427706
-3.4381733 13.037287 -0.72894055
-3.2307947 13.085764 -0.6593914
6.9194355 14.553835 3.1827452
7.2684517 14.600625 3.3349178
5.9159703 14.409432 2.7494788
6.3421106 14.472192 2.9326403
6.6879907 14.532279 3.0848038
4.923749 14.268665 2.331825
5.2783432 14.326512 2.4818268
5.6749125 14.379078 2.6479957
3.9278278 14.116081 1.9206561
4.2359533 14.167804 2.0479131
4.6788568 14.238688 2.2315962
2.8734338 13.976113 1.5032517
3.2093701 14.024625 1.6359096
3.6291821 14.081192 1.80234
1.8452971 13.812918 1.1024215
2.2098925 13.879786 1.2454737
2.6424925 13.945343 1.4136775
0.81791139 13.620649 0.70766175
1.1240406 13.717511 0.83402032
1.5982939 13.795246 1.0136414
0.096576467 13.582806 0.46326458
0.5724442 13.637517 0.63134181
-0.85835183 13.454533 0.12998945
-0.47511831 13.501454 0.26124766
-0.13608272 13.562037 0.38352722
-3.0015578 13.145708 -0.58028167
-2.72245 13.200376 -0.48750204
-4.0721273 12.96458 -0.91970634
-3.6703424 13.035626 -0.7931655
-3.2733974 13.096321 -0.66868252
-4.2462044 12.994117 -0.95935684
18.048542 16.167059 7.3888288
18.343027 16.198566 7.5264502
11.56845 15.18487 5.2985382
10.641473 15.06646 4.8646445
10.94368 15.11394 5.0075593
11.383771 15.177181 5.2153211
9.6754875 14.933405 4.4170084
9.9674149 14.984561 4.554163
10.419087 15.045455 4.7632828
8.9783239 14.851865 4.1020799
9.3946781 14.906987 4.2912488
9.6842566 14.953559 4.4255228
7.9326582 14.695363 3.6291459
8.3735294 14.76566 3.8284283
8.7198715 14.827979 3.9877815
7.4719548 14.639998 3.4271364
7.7047896 14.6674 3.528795
4.6949635 14.168602 2.9806604
5.007606 14.215294 3.1169484
3.6611509 14.027927 2.5431828
4.0464416 14.088561 2.7069793
4.434783 14.154466 2.8753281
2.6755064 13.888786 2.1385093
3.0473282 13.939213 2.2890911
3.4167969 13.998381 2.4429982
1.6400124 13.731519 1.7253604
1.9966995 13.797796 1.8695568
2.4197659 13.858693 2.0375891
0.65153831 13.556383 1.3386098
0.95825171 13.63955 1.465551
1.3698066 13.712912 1.6268125
-0.42989391 13.433075 0.95260406
-0.096871853 13.498352 1.0776745
0.3421275 13.562827 1.2386039
-1.4304551 13.293987 0.60423726
-1.1396292 13.346355 0.70749497
-0.67701948 13.409873 0.86848372
-2.4698052 13.125425 0.2518326
-2.1834147 13.191159 0.3529461
-1.7090969 13.262265 0.51215672
-1.4200884 13.318269 0.61436558
-3.2376177 13.038537 0.012966913
-2.7705183 13.108464 0.16221228
-2.4590256 13.158326 0.26431048
-4.2512093 12.898066 -0.29648039
-3.8179548 12.96021 -0.16540305
-3.4720585 13.015705 -0.057335574
-4.4370112 12.912891 -0.34038588
19.643969 16.375698 8.1441441
19.796307 16.341085 8.2072954
18.930006 16.282166 7.8051848
19.360775 16.342117 8.0101366
18.526211 16.229256 7.6141129
18.655931 16.245556 7.6753268
14.625993 15.635177 6.7824292
14.877746 15.664297 6.9052052
13.653711 15.499947 6.3064284
14.037571 15.548993 6.4928193
14.376017 15.601942 6.6598878
12.651485 15.355776 5.820334
12.993834 15.411993 5.9873114
13.387603 15.463402 6.177177
11.682344 15.206533 5.3539147
11.986008 15.259894 5.5009804
12.392464 15.320787 5.696218
11.574384 15.206523 5.3061347
8.3957939 14.693974 4.6635041
8.7157507 14.742555 4.8172679
9.0547037 14.789765 4.979928
7.4222331 14.55484 4.2050328
7.6942935 14.602127 4.3345709
8.1881437 14.670022 4.5665584
6.4156418 14.395469 3.7377565
6.7338266 14.466109 3.890063
7.152123 14.524785 4.0821939
7.4266558 14.575882 4.2128401
5.679698 14.316581 3.4146242
6.0888782 14.37622 3.5980318
6.429297 14.425562 3.7519801
5.1946959 14.247448 3.2003827
5.4511032 14.289861 3.3148856
2.4139109 13.776845 2.749676
2.7455606 13.82325 2.8878784
1.4206971 13.639299 2.3472853
1.8551207 13.699608 2.5213375
2.1836958 13.751066 2.6568079
0.39830577 13.460533 1.9389546
0.81565392 13.541611 2.1061993
1.1574316 13.605041 2.2442672
-0.63504052 13.33754 1.564414
-0.30766734 13.390402 1.6857756
0.12887451 13.450036 1.8465668
-1.6722428 13.17874 1.1962367
-1.3094673 13.239139 1.3245486
-0.88622683 13.303308 1.4748552
-2.7195415 13.028076 0.84733081
-2.3450444 13.084003 0.97069639
-1.9219162 13.147096 1.1126875
-3.7702272 12.871211 0.51499557
-3.425539 12.926127 0.62311953
-2.9865298 12.994267 0.76304841
-4.4603496 12.796811 0.31623828
-4.0022392 12.851807 0.44913611
-4.6553473 12.877868 0.29343334
17.329437 15.999951 8.1282768
17.568983 16.035755 8.2498589
17.987724 16.091444 8.4614382
16.619087 15.903791 7.7713742
17.045202 15.964725 7.9859185
17.342594 16.020809 8.1388941
15.476656 15.74446 7.2009935
16.115938 15.839472 7.5206804
16.352364 15.870559 7.6384726
15.121232 15.70293 7.0265694
15.385558 15.737996 7.1571169
12.239839 15.219729 6.5574398
11.360082 15.098329 6.1122894
11.762624 15.156922 6.3160625
12.08322 15.21004 6.4808812
10.416739 14.972789 5.6432962
10.756219 15.018202 5.8113503
11.121555 15.067282 5.9931517
9.4256248 14.828573 5.1557951
9.7462168 14.881625 5.3143067
10.149627 14.939695 5.5126009
9.2240934 14.821896 5.0640388
7.062047 14.424 4.8467765
6.1442876 14.306159 4.41013
6.4570236 14.349805 4.5588698
6.920795 14.415081 4.781846
5.1713209 14.16674 3.955646
5.4941835 14.21318 4.1051302
5.9187512 14.279273 4.305438
4.1702285 14.020359 3.5020008
4.448957 14.068578 3.629339
4.8762307 14.129376 3.8223543
3.4359996 13.914364 3.1799641
3.9020944 13.983522 3.3840711
4.175879 14.036336 3.5095327
2.9309375 13.856861 2.9685698
3.1677554 13.881394 3.0662441
19.308453 16.258526 9.1314592
19.55213 16.24819 9.247529
18.285553 16.127182 8.6115437
18.615871 16.175636 8.7802811
19.054119 16.233154 9.0033226
18.170689 16.120073 8.5549879
15.009056 15.583618 7.9909058
15.088141 15.612805 8.0372782
14.049091 15.45177 7.4866567
14.329457 15.509565 7.6382475
14.756865 15.570575 7.8633475
13.360688 15.377417 7.1339822
13.829064 15.439623 7.3765783
14.064075 15.479595 7.5010157
12.42036 15.246057 6.6499286
12.79564 15.303064 6.8435678
13.11296 15.352991 7.0084262
10.032729 14.835346 6.3439302
9.0692377 14.70785 5.8487158
9.5531778 14.773251 6.096632
9.872263 14.82059 6.2627234
8.1459389 14.582507 5.3832631
8.5059385 14.630692 5.5633831
8.8953791 14.69098 5.7623844
7.1880269 14.446981 4.909832
7.5191727 14.498236 5.0736966
7.8592463 14.544217 5.2410564
7.0741487 14.445495 4.8590279
16.978651 15.860803 9.0439758
17.326283 15.91827 9.2340546
17.656937 15.975134 9.4157896
15.991539 15.732237 8.5160818
16.293344 15.775072 8.6778431
16.73316 15.832861 8.9131889
15.217688 15.629981 8.1056566
15.800882 15.711654 8.415802
12.722201 15.195692 7.7782488
11.799825 15.07781 7.2802615
12.085699 15.118011 7.4349546
12.524103 15.175336 7.6721892
11.12053 14.983576 6.9164062
11.554111 15.045239 7.1486521
10.199707 14.861429 6.4320159
10.553858 14.908629 6.6174164
10.82479 14.941877 6.7590742
17.894487 15.986808 9.539794
18.056034 16.082754 9.6450958
17.768456 16.016148 9.4824171
13.724769 15.323637 8.3278275
14.000854 15.389572 8.4894361
12.772954 15.209986 7.808167
13.080051 15.251549 7.9765143
13.493025 15.298602 8.2014008
12.718108 15.210062 7.7804065
14.716564 -26.095068 -3.5813642
13.823308 -26.137825 -3.8213153
14.115795 -26.074835 -3.7346404
14.519417 -26.01926 -3.6206486
13.056927 -26.230471 -4.0390987
13.526053 -26.148916 -3.9015322
13.835176 -26.106249 -3.8131526
12.892237 -26.250137 -4.0862136
11.992903 -26.394773 -4.3521957
12.466199 -26.313812 -4.210907
12.813316 -26.257568 -4.10852
10.950662 -26.537424 -4.6618896
11.393077 -26.480896 -4.5304012
11.756391 -26.418344 -4.4205046
9.8952951 -26.700661 -4.9848671
10.329639 -26.634676 -4.8514028
10.698978 -26.569557 -4.7371898
8.8447247 -26.87348 -5.3146462
9.2857609 -26.818474 -5.1783967
9.6205597 -26.736923 -5.068954
7.7911482 -27.059538 -5.6543036
8.1896954 -26.929964 -5.5149193
8.5912313 -26.858002 -5.3855052
7.1534872 -27.092947 -5.8495903
7.5389395 -27.094912 -5.7350521
6.0520844 -27.171122 -6.1960769
6.5407734 -27.095245 -6.0342746
6.8313761 -27.048525 -5.9384522
5.0755949 -27.315763 -6.5226679
5.4927645 -27.254633 -6.3825245
5.7897286 -27.204367 -6.2821975
4.1250753 -27.528801 -6.8590035
4.4130526 -27.427073 -6.7500262
14.522113 -26.120071 -2.7138262
13.505957 -26.22975 -3.0113721
13.853313 -26.171236 -2.9066474
14.323955 -26.097229 -2.7660418
12.488209 -26.372545 -3.3172469
12.816503 -26.329647 -3.2186093
13.270534 -26.256496 -3.0810177
11.435486 -26.544466 -3.6409049
11.74123 -26.487329 -3.5455575
12.216837 -26.417484 -3.4003844
10.387279 -26.704536 -3.9661312
10.70836 -26.648056 -3.865093
11.132682 -26.577087 -3.7326565
11.444727 -26.518803 -3.6348948
9.6186714 -26.80703 -4.2055292
10.11239 -26.728458 -4.0498071
10.399843 -26.681101 -3.9593644
8.5698833 -26.96771 -4.5389128
9.0399981 -26.88695 -4.3877349
9.3833809 -26.826445 -4.2776556
7.5233283 -27.169605 -4.8819618
8.0013981 -27.065971 -4.7231126
8.335453 -26.996969 -4.6131439
6.4872212 -27.273361 -5.213232
6.9478035 -27.226746 -5.0653596
7.2491617 -27.200512 -4.9696121
5.4410453 -27.436075 -5.5604587
5.871387 -27.368666 -5.4170012
6.2342787 -27.307947 -5.2960801
4.3747396 -27.599504 -5.9190774
4.767787 -27.52273 -5.7840362
5.1908927 -27.46636 -5.6430125
4.2362275 -27.629084 -5.9671674
2.3711348 -27.897024 -6.6052065
2.5371733 -27.883129 -6.5491662
1.9308399 -28.047922 -6.7702308
2.1317954 -27.918633 -6.6864309
0.046678748 -28.379251 -7.4420714
-3.4542787 -28.804548 -8.7020798
14.248618 -26.196037 -1.8780659
14.46153 -26.170074 -1.8125435
13.213719 -26.345804 -2.2000594
13.643296 -26.284561 -2.066227
14.009036 -26.222588 -1.9516367
12.185463 -26.492739 -2.5221441
12.532498 -26.437376 -2.4126401
12.958496 -26.375744 -2.2791648
11.134805 -26.657572 -2.8551793
11.499749 -26.594713 -2.7386796
11.93338 -26.524574 -2.6010711
10.081178 -26.802193 -3.1897876
10.418782 -26.753637 -3.082088
10.882524 -26.691936 -2.9350326
9.028657 -26.968861 -3.5289667
9.3765287 -26.909231 -3.4161327
9.8457966 -26.83498 -3.2649784
8.0209484 -27.113125 -3.8548334
8.3449869 -27.070444 -3.7501607
8.7960768 -26.998688 -3.6036239
6.9778295 -27.276642 -4.1963458
7.2671652 -27.223743 -4.1006021
7.7436652 -27.147545 -3.9444561
6.2206192 -27.386234 -4.4451599
6.696115 -27.312853 -4.2882972
6.9855456 -27.259174 -4.1921787
5.1689773 -27.53595 -4.7929583
5.6229811 -27.467859 -4.6421123
5.943718 -27.420696 -4.5359268
4.1553059 -27.689461 -5.1319079
4.5917306 -27.621759 -4.9854898
4.9356503 -27.563414 -4.8699188
3.0933311 -27.832834 -5.4881606
3.5175591 -27.771711 -5.345118
3.8881822 -27.722361 -5.2209029
2.0493667 -27.99909 -5.8438373
2.4801633 -27.931206 -5.6968141
2.8425634 -27.866577 -5.5727043
1.8059268 -28.027548 -5.9261293
-3.2696366 -28.936354 -7.7071834
-2.9217057 -28.920498 -7.5878716
-3.6849589 -28.894669 -7.843894
-3.3261342 -28.886938 -7.7213674
-4.4198222 -28.948736 -8.0995312
23.062716 -24.931818 1.8811026
22.03838 -25.08209 1.5536447
22.445761 -25.025526 1.6837379
22.80901 -24.965574 1.8002442
20.990477 -25.244009 1.217685
21.341238 -25.187504 1.3303292
21.759697 -25.126652 1.46426
20.785099 -25.271406 1.1520386
19.943468 -25.404673 0.88155127
20.306999 -25.342945 0.99867314
20.659983 -25.293793 1.1116982
18.892309 -25.562368 0.54373997
19.24367 -25.502308 0.65715814
19.688559 -25.438444 0.79995191
17.836649 -25.719395 0.20395729
18.177881 -25.660437 0.31434882
18.615118 -25.595083 0.45509347
16.821335 -25.86517 -0.12312665
17.13014 -25.823412 -0.023743471
17.604239 -25.74774 0.12944181
15.777354 -26.030727 -0.46105924
16.057232 -25.979273 -0.36996505
16.555376 -25.906284 -0.2090894
14.73568 -26.192545 -0.79875124
15.024376 -26.135803 -0.70435834
15.50126 -26.062546 -0.54981583
15.78857 -26.008289 -0.45615217
13.970237 -26.292549 -1.0461981
14.461659 -26.21966 -0.88675296
14.743382 -26.174967 -0.79523629
12.923832 -26.446646 -1.3862131
13.392605 -26.372211 -1.2334583
13.703494 -26.32831 -1.1325715
11.876885 -26.599785 -1.7271515
12.350557 -26.527788 -1.5726311
12.688817 -26.476431 -1.4623802
10.841399 -26.753447 -2.06533
11.267035 -26.692888 -1.9263906
11.638269 -26.637083 -1.8051225
9.8248301 -26.908817 -2.3984571
10.226023 -26.84712 -2.2668688
10.591133 -26.786736 -2.1469486
8.7734938 -27.06546 -2.743624
9.1580143 -27.002979 -2.6169479
9.5448599 -26.943659 -2.4898469
7.7286301 -27.224047 -3.0877802
8.0911837 -27.163654 -2.9679191
8.5226698 -27.096786 -2.8257239
6.6782675 -27.367689 -3.4336855
7.0142341 -27.316643 -3.3226228
7.4882975 -27.251585 -3.1665022
5.6332335 -27.528992 -3.7799828
5.9757333 -27.470982 -3.6660585
6.4428616 -27.396887 -3.5111563
4.626173 -27.668964 -4.1136098
4.9090209 -27.625031 -4.0195246
5.3984318 -27.553885 -3.8571975
3.5828905 -27.834404 -4.4615026
3.8713002 -27.779329 -4.3646359
4.3471193 -27.705988 -4.2061081
4.6338649 -27.652294 -4.1100488
2.8197861 -27.935759 -4.7153087
3.3173678 -27.865835 -4.5495119
3.5929627 -27.816916 -4.4571095
1.4799625 -28.208273 -5.1682558
1.7751487 -28.097031 -5.0650177
2.2434924 -28.018381 -4.9077063
2.5549843 -27.973509 -4.8036542
1.481037 -28.177061 -5.1658821
1.546285 -28.13031 -5.1416183
-2.7495868 -28.935146 -6.599175
-2.4547639 -28.824905 -6.4951377
-3.6407132 -29.05048 -6.899961
-2.740046 -28.864578 -6.591486
-3.6070459 -28.883337 -6.8781075
19.591383 -25.514858 1.7985021
20.04607 -25.447102 1.9543108
20.311161 -25.40291 2.0453455
18.560364 -25.673677 1.4454426
18.991259 -25.603989 1.5930375
19.355879 -25.544193 1.7180313
17.547123 -25.819183 1.0993856
17.963806 -25.757719 1.2416835
18.311583 -25.704302 1.3605855
16.501123 -25.976665 0.74253941
16.865026 -25.918056 0.86673647
17.270889 -25.859276 1.0051303
15.45961 -26.134609 0.38786593
15.822997 -26.077368 0.51160747
16.254049 -26.011036 0.65843844
14.412971 -26.287224 0.032359838
14.771238 -26.230072 0.15412648
15.22054 -26.163296 0.30679256
13.403658 -26.43145 -0.3096624
13.705953 -26.389923 -0.20734316
14.177375 -26.317005 -0.047415599
12.366293 -26.588957 -0.66070253
12.655659 -26.535379 -0.5625661
13.137136 -26.466715 -0.39976424
11.611547 -26.695995 -0.91535938
12.086864 -26.621965 -0.75483274
12.374149 -26.570581 -0.65753078
10.561116 -26.851643 -1.2692496
11.056668 -26.782173 -1.102525
11.332973 -26.735041 -1.0092371
9.5172195 -27.012739 -1.6202425
9.984808 -26.933729 -1.4629327
10.293629 -26.893024 -1.359284
8.4740305 -27.165771 -1.9698594
8.9273834 -27.089893 -1.8177571
9.2833662 -27.038046 -1.6984406
7.4401016 -27.314157 -2.315361
7.8713908 -27.246901 -2.1711912
8.2003107 -27.196768 -2.0611799
6.4194937 -27.464762 -2.655622
6.8259158 -27.411459 -2.5204175
7.1896958 -27.349285 -2.3988776
5.3763766 -27.616346 -3.0023742
5.7401843 -27.556637 -2.881345
6.1416793 -27.497849 -2.7478597
4.3293891 -27.76626 -3.3493884
4.7008567 -27.712318 -3.2263489
5.125752 -27.65007 -3.0854666
3.2823484 -27.937738 -3.6960609
3.6357005 -27.88357 -3.5792682
4.0923452 -27.803419 -3.4279075
2.2698967 -28.071138 -4.02946
2.5969281 -28.025486 -3.9217846
3.0450788 -27.9613 -3.7740502
1.513034 -28.194519 -4.2787728
2.0015378 -28.111881 -4.1178241
-4.1081328 -29.193686 -6.1183825
-3.8481855 -29.096207 -6.0323644
-4.7591858 -29.24058 -6.3279724
-4.3096008 -29.113472 -6.1805539
-3.9793019 -29.005919 -6.071774
-5.2591381 -29.197977 -6.4864602
22.719595 -25.041315 2.8727038
21.67679 -25.200966 2.5140448
22.154955 -25.126316 2.6784916
22.448841 -25.084078 2.7794869
20.664417 -25.358757 2.1662362
21.100805 -25.290077 2.3161242
21.443825 -25.231241 2.4341631
20.30547 -25.418514 2.0429065
20.400024 -25.392056 2.0757413
18.984007 -25.757433 2.6245642
19.249783 -25.680666 2.7214737
19.723139 -25.599277 2.8940499
17.933647 -25.902691 2.243556
18.220724 -25.845764 2.3475909
18.751896 -25.770567 2.5402992
16.923084 -26.086451 1.8786564
17.219927 -25.991575 1.9857684
17.625635 -25.940699 2.1321969
16.153803 -26.169781 1.6022668
16.634588 -26.065201 1.774991
16.916235 -25.979504 1.8764307
14.836896 -26.404463 1.1316093
15.109985 -26.31213 1.2289419
15.597548 -26.228476 1.4030765
15.872478 -26.174927 1.5014602
14.058236 -26.481573 0.85498917
14.510077 -26.397257 1.0153549
14.884507 -26.302565 1.1485569
13.033624 -26.633188 0.49292466
13.497385 -26.554398 0.65650624
13.874995 -26.440079 0.78997558
12.036367 -26.794384 0.14280377
12.431419 -26.703068 0.28116268
12.877193 -26.584946 0.43768764
11.009153 -26.849491 -0.21588638
11.419971 -26.824192 -0.072698832
11.75073 -26.781633 0.042732105
9.9696617 -27.012075 -0.57593119
10.311009 -26.953176 -0.4579922
10.777702 -26.879402 -0.29629096
8.966033 -27.1541 -0.9211024
9.2402925 -27.106922 -0.82705045
9.7365789 -27.033722 -0.65635222
7.9242439 -27.319702 -1.276589
8.2133026 -27.263288 -1.1782757
8.6885118 -27.187704 -1.0161113
8.9770508 -27.13401 -0.9174335
