# .PCD v0.7 - Point Cloud Data file format
VERSION 0.7
FIELDS x y z
SIZE 4 4 4
TYPE F F F
COUNT 1 1 1
WIDTH 1327
HEIGHT 1
VIEWPOINT 0 0 0 0.707107 -0.707107 0 0
POINTS 1327
DATA ascii
-12.009274 6.3560228 -5.8810544
-11.844824 6.4879928 -5.7480235
-11.511563 6.7405405 -5.7243218
-11.315653 6.890193 -5.6900301
-11.012044 7.1196861 -5.6755261
-10.631749 7.4061022 -5.6725073
-10.434267 7.5572062 -5.6310382
-10.096065 7.8119569 -5.6243763
-9.8186646 8.0231943 -5.5801539
-9.5928116 8.1950445 -5.5452237
-9.1893377 8.4989176 -5.5317912
-8.9534941 8.678524 -5.490356
-8.9353371 8.6901941 -5.5222282
-8.6808987 8.8861465 -5.4405379
-8.3602219 9.1309347 -5.3715925
-8.1335697 9.3032131 -5.3336
-7.7807074 9.5701361 -5.2933989
-7.5323486 9.7583961 -5.2575369
-7.5228271 9.764492 -5.2742891
-7.2734694 9.9529247 -5.2461162
-6.8839054 10.246256 -5.2168756
-6.6549487 10.419483 -5.184936
-6.3554153 10.644419 -5.1683698
-6.0368481 10.884119 -5.1414223
-5.8260241 11.042192 -5.1312041
-5.5571842 11.241837 -5.1477394
-0.78526413 14.810999 -4.7521143
-0.44041049 15.067112 -4.7313256
-0.21308127 15.236735 -4.7035017
0.0941552 15.463288 -4.7066474
0.32771617 15.640589 -4.6266069
-12.417455 7.2100801 -5.7148609
-12.07921 7.4569287 -5.6824965
-11.866993 7.6119013 -5.6601439
-11.506074 7.8752961 -5.6349649
-11.240399 8.0691957 -5.6188798
-10.980352 8.2592888 -5.5926495
-10.619433 8.5230598 -5.5642848
-10.364779 8.7096128 -5.5263829
-10.35673 8.7150602 -5.5467653
-10.107161 8.8978529 -5.5152249
-9.710721 9.1878357 -5.4894361
-9.5108547 9.3343153 -5.4655385
-9.2143755 9.5512991 -5.4495664
-8.8605852 9.8104191 -5.4267368
-8.6173325 9.9889355 -5.3979254
-8.2847357 10.2328 -5.3753405
-7.9690785 10.464352 -5.353713
-7.7677798 10.612228 -5.3330898
-7.3849998 10.893233 -5.3097448
-7.1234035 11.08567 -5.2788486
-7.1098223 11.09514 -5.3036032
-6.8601456 11.279078 -5.2656803
-6.4948168 11.547764 -5.2396016
-6.2719774 11.712195 -5.200479
-6.0540223 11.872291 -5.2029524
-1.1173415 15.524768 -4.8436384
-0.92591429 15.667846 -4.7930846
-0.69705123 15.838381 -4.7624927
-0.6434443 15.877242 -4.812408
-0.38957947 16.067036 -4.7530799
-0.039972052 16.327242 -4.7390494
0.22593988 16.525385 -4.7228913
0.52802485 16.750601 -4.7060409
0.84497648 16.987383 -4.6699982
1.0463353 17.138105 -4.636611
1.3778191 17.386902 -4.5539999
1.6252409 17.572973 -4.4790626
1.9388176 17.807825 -4.4414458
2.2390275 18.032459 -4.4215388
2.4667494 18.203312 -4.3888302
2.8575361 18.49621 -4.3559299
3.1042216 18.681311 -4.3297563
3.1173012 18.69067 -4.3511558
3.3663917 18.877924 -4.3132639
3.7552068 19.169548 -4.2947912
3.9856308 19.342863 -4.264565
4.228013 19.524485 -4.2710176
4.6297531 19.826393 -4.2460895
4.8400116 19.984552 -4.2301564
5.1798635 20.240465 -4.197722
5.4572349 20.449224 -4.1808758
5.6855111 20.621407 -4.1535244
6.0731606 20.913504 -4.1277914
6.3215375 21.101215 -4.0893145
6.3341818 21.110222 -4.1130581
6.5915747 21.304508 -4.0891647
6.9697514 21.589752 -4.069706
-12.969373 7.9449039 -5.7001843
-12.652276 8.16716 -5.6711111
-12.447676 8.3106747 -5.6495295
-12.044144 8.5942936 -5.6211486
-11.750289 8.8011894 -5.6069126
-11.534939 8.952796 -5.5843005
-11.134235 9.2354221 -5.5541081
-10.92782 9.3808622 -5.5213418
-10.624754 9.5952301 -5.5031905
-10.244306 9.8646116 -5.4758501
-10.030716 10.015925 -5.4538832
-9.7084961 10.244798 -5.4359317
-9.3673153 10.487556 -5.4212804
-9.1397219 10.649215 -5.3857145
-8.7632113 10.91782 -5.3654561
-8.512928 11.095838 -5.3151135
-8.5009069 11.105086 -5.3457108
-8.2652235 11.273468 -5.3212256
-7.857151 11.565863 -5.2986999
-7.6530967 11.711972 -5.2729988
-7.3629022 11.920475 -5.2544584
-6.9705181 12.202843 -5.2285423
-6.7584167 12.355455 -5.2021904
-6.5459337 12.509316 -5.2111373
-2.1763501 15.703153 -4.8475637
-2.017957 15.819947 -4.811645
-1.9994926 15.834479 -4.844892
-1.7589802 16.012186 -4.7927608
-1.3674592 16.303581 -4.774756
-1.1651803 16.453953 -4.7471137
-0.8432191 16.694683 -4.7419391
-0.48496613 16.962978 -4.7339497
-0.27411583 17.120993 -4.7217197
0.066788912 17.376715 -4.6925402
0.3724871 17.606096 -4.6524887
0.57054472 17.754761 -4.6169543
0.97047573 18.056541 -4.591392
1.1697598 18.206659 -4.5569172
1.2191623 18.245291 -4.6086206
1.4708974 18.434752 -4.5408721
1.8166146 18.696903 -4.515903
2.0475769 18.872154 -4.4910417
2.3647974 19.11356 -4.4689746
2.6959019 19.36618 -4.4572635
2.8990426 19.520901 -4.4252906
3.2584305 19.796074 -4.4166927
3.5230594 19.997797 -4.3523517
3.5741062 20.03816 -4.4075942
3.7912011 20.204094 -4.3607149
4.1707664 20.495607 -4.3256264
4.3645473 20.644611 -4.3061686
4.6677327 20.878569 -4.2983603
5.0123229 21.144636 -4.2779889
5.2427301 21.322315 -4.2386966
5.5535083 21.563255 -4.2343001
5.8843288 21.819824 -4.2159653
6.0865779 21.976501 -4.1817198
6.4755173 22.278988 -4.1596317
6.6923919 22.446945 -4.0921273
6.7739649 22.512197 -4.1887441
6.9538136 22.651787 -4.1380191
-2.696537 16.283234 -4.8587546
-2.5247908 16.407925 -4.8132896
-2.4210536 16.491514 -4.9060159
-2.2049334 16.647854 -4.8317461
-1.8279898 16.929642 -4.8255367
-1.6324258 17.072258 -4.7635489
-1.3028904 17.320978 -4.7715554
-0.97631413 17.566713 -4.7580519
-0.75193685 17.732334 -4.6932287
-0.37271214 18.022474 -4.7220244
-0.10761654 18.225386 -4.7350516
0.13833918 18.409708 -4.6799645
0.49852678 18.681793 -4.6191521
0.72087038 18.847113 -4.5347986
0.76380014 18.88839 -4.6591582
0.97036058 19.042788 -4.5857644
1.3920473 19.368124 -4.5752687
1.5991606 19.522997 -4.487608
1.8830594 19.746117 -4.5245175
2.2194993 20.005489 -4.4799223
2.3528705 20.106771 -4.434536
2.6062834 20.30304 -4.4017138
-13.532991 8.6756802 -5.7399864
-13.228951 8.881217 -5.7313457
-12.974443 9.0504599 -5.6647153
-12.586086 9.3143263 -5.658514
-12.33787 9.479681 -5.5887065
-12.257541 9.5389214 -5.6686139
-12.063727 9.669157 -5.6288862
-11.693573 9.9195442 -5.5752058
-11.450879 10.083588 -5.5324974
-11.143765 10.294071 -5.5209022
-10.72776 10.581496 -5.5326123
-10.533351 10.712029 -5.468205
-10.233962 10.919743 -5.4756637
-9.8453131 11.190207 -5.4876356
-9.6326542 11.332935 -5.4001703
-9.3035851 11.562894 -5.4081736
-9.0157681 11.759158 -5.3280458
-8.9629259 11.800626 -5.4007611
-8.7389688 11.955087 -5.3591337
-8.3504324 12.228087 -5.3579412
-8.1090717 12.393188 -5.279098
-7.8291655 12.592352 -5.3012648
-7.4856925 12.833905 -5.2744136
-7.2418685 13.005589 -5.2512498
-7.0746737 13.124783 -5.2549462
2.5465806 20.26457 -4.5319819
2.6995966 20.38036 -4.466826
3.1653056 20.746727 -4.4730444
3.3527882 20.889393 -4.3905864
3.6718137 21.139788 -4.3642082
3.900347 21.318636 -4.3299766
4.2007136 21.557722 -4.3402805
4.5542607 21.836681 -4.3002119
4.7826242 22.017513 -4.2777176
5.1024098 22.271339 -4.2451134
5.5540915 22.633572 -4.2448697
5.9311938 22.935591 -4.2201285
-10.973346 11.447646 -5.4055347
-10.697474 11.634774 -5.418232
-10.443357 11.801702 -5.370615
-10.352317 11.871215 -5.450036
-10.154649 11.997006 -5.3665533
-9.7537708 12.268481 -5.353898
-9.5562038 12.399648 -5.3174558
-9.2382193 12.616416 -5.3072186
-8.8452587 12.88844 -5.3236465
-8.630909 13.028519 -5.2479625
-8.2891178 13.265778 -5.2519712
-7.9927449 13.472227 -5.2555184
-7.7600565 13.629249 -5.2040462
-7.3823323 13.89115 -5.1778674
-7.1085033 14.076944 -5.1143713
-7.1078987 14.082328 -5.1609082
-6.8788333 14.238849 -5.1116633
-6.4354572 14.553206 -5.1116724
-6.2456732 14.6817 -5.0503273
-6.1913762 14.730116 -5.1398392
-5.9182181 14.915863 -5.0512905
-5.5524445 15.178256 -5.0495114
-5.3523712 15.314319 -4.9749856
-5.0059566 15.565319 -4.9772129
-4.6516089 15.823448 -4.9820423
-4.4640393 15.955911 -4.9413185
-4.100431 16.215837 -4.8823695
-3.8766999 16.376287 -4.8454638
-3.5709484 16.60067 -4.8315501
-3.192493 16.879936 -4.816761
-2.9872928 17.030634 -4.7968855
-2.6572056 17.276196 -4.7832894
-2.3045847 17.542404 -4.7930217
-2.1319313 17.667891 -4.7496424
-1.7174108 17.980072 -4.7310042
-1.438807 18.19315 -4.7390227
-1.2268651 18.346817 -4.6636147
-0.85391545 18.63472 -4.6780906
-0.66164464 18.770245 -4.5644951
-0.55904752 18.865736 -4.7107801
-0.38886321 18.989107 -4.6352992
0.036063213 19.31535 -4.5994344
0.21826321 19.449747 -4.5295177
0.53831869 19.702045 -4.5441303
0.89017868 19.97942 -4.5500531
1.0683787 20.112326 -4.4783077
1.4365782 20.403704 -4.4745555
1.7005265 20.61058 -4.4462295
1.893959 20.763277 -4.4297419
2.2507257 21.049059 -4.4297438
2.86218 21.53326 -4.3481545
3.1623828 21.776209 -4.3446288
3.312454 21.89045 -4.2701306
3.7217202 22.227274 -4.2988939
4.0694733 22.508871 -4.267138
4.2344742 22.641375 -4.2362223
4.608994 22.94906 -4.2260809
4.8081303 23.106115 -4.1503325
5.0495853 23.31266 -4.2143283
5.4267859 23.623558 -4.1853127
-14.308558 9.2692127 -5.6981974
-14.049535 9.4360437 -5.6750846
-13.805541 9.5907049 -5.6229463
-13.774515 9.6161423 -5.6805782
-13.522347 9.7764006 -5.6256557
-13.123742 10.036757 -5.6098037
-12.911648 10.171696 -5.5582404
-12.593714 10.382744 -5.5699
-12.260898 10.600413 -5.5400758
-11.987374 10.777703 -5.4926238
-11.634915 11.010475 -5.4692497
-11.306077 11.231995 -5.4851627
-11.121429 11.352566 -5.4508061
-10.935576 11.482672 -5.5041895
-4.86377 16.623018 -4.8403864
-4.5652819 16.839512 -4.8295045
-4.3526049 16.992855 -4.8111644
-3.9905248 17.25666 -4.7878981
-3.726495 17.45076 -4.7758365
-3.4685872 17.639156 -4.7495284
-3.0966787 17.915415 -4.7305751
-2.8511527 18.093391 -4.6840858
-2.8382423 18.107286 -4.7104855
-2.6052713 18.280809 -4.6895666
-2.2142403 18.573938 -4.6564283
-2.0062444 18.729166 -4.6292186
-1.7107769 18.95369 -4.6080003
-1.336851 19.239685 -4.5830641
-1.1523367 19.378851 -4.5531826
-0.87853438 19.588331 -4.5221558
-13.01275 11.167161 -5.4906135
-12.775642 11.317362 -5.4766645
-12.554417 11.456078 -5.4491863
-12.125811 11.728978 -5.419487
-11.88795 11.881372 -5.4053917
-11.876555 11.891399 -5.424953
-11.603974 12.063362 -5.383069
-11.232393 12.303483 -5.3615322
-10.962223 12.476674 -5.3300695
-10.67146 12.666667 -5.3158855
-10.314558 12.899496 -5.2891541
-10.09427 13.042808 -5.2650018
-9.7030859 13.30128 -5.241694
-9.3917284 13.507534 -5.2200909
-9.1902046 13.641216 -5.2026391
-8.7641439 13.926069 -5.1725254
-8.5232544 14.086172 -5.1435351
-8.2393122 14.278821 -5.1295209
-7.8771014 14.524582 -5.1037579
-7.6382332 14.685785 -5.0754662
-7.3139343 14.907052 -5.0451403
-6.9714675 15.14508 -5.0346737
-6.7666225 15.28502 -5.0072756
-6.3616819 15.567994 -4.9849515
-6.0658255 15.777011 -4.976017
-5.8602314 15.918284 -4.938457
-5.4515843 16.208416 -4.915554
-5.2158704 16.375282 -4.8933134
-4.955224 16.56156 -4.8733921
-1.2001216 19.348635 -4.5989075
-1.087786 19.43343 -4.58004
-0.79032815 19.660669 -4.5414228
-0.51516461 19.875422 -4.528913
-0.29172158 20.046272 -4.4899044
0.083451197 20.3402 -4.4600253
0.33550048 20.537222 -4.4305329
0.34812748 20.551641 -4.4584098
0.59330761 20.742634 -4.4181886
0.9733476 21.046566 -4.3973155
1.1964843 21.222597 -4.3633003
1.4978472 21.467714 -4.3573527
1.8009553 21.712702 -4.3340058
2.0037537 21.876154 -4.3101468
2.3617957 22.167122 -4.2743068
2.6092842 22.363277 -4.2101455
2.6562202 22.409483 -4.2578597
2.8554189 22.572914 -4.2376003
3.2487814 22.89996 -4.2171993
3.4250886 23.041563 -4.1701059
3.4753063 23.09123 -4.2200651
3.7018666 23.276566 -4.1759377
4.0796933 23.59436 -4.1535063
4.2754765 23.755867 -4.1148839
4.6063147 24.037674 -4.1031103
4.928391 24.313047 -4.0908217
5.0950265 24.453979 -4.0697317
5.4506168 24.758831 -4.0455804
5.737772 25.008108 -4.0417581
5.9137487 25.15663 -4.0039701
6.3067899 25.49715 -3.9754453
-14.884499 10.000953 -5.6375327
-14.641606 10.150825 -5.6179714
-14.400236 10.299521 -5.5938144
-14.098127 10.487916 -5.5763793
-13.711877 10.728708 -5.5469193
-13.459605 10.886146 -5.5240431
-13.22782 11.033295 -5.519073
-9.4987288 14.421612 -5.1272988
-9.2035828 14.633184 -5.2068367
-9.0133619 14.753294 -5.1675944
-8.9662733 14.801415 -5.2558875
-8.7420177 14.93757 -5.1756468
-8.3461523 15.203788 -5.1642866
-8.1320324 15.336378 -5.0932684
-7.7901235 15.56832 -5.0791497
-7.4772353 15.785712 -5.0858912
-7.2183924 15.954838 -5.0300126
-6.8773308 16.191217 -5.0181732
-6.5884533 16.381622 -4.9518785
-6.538693 16.42824 -5.0101967
-6.3296571 16.57177 -4.9861331
-5.9375715 16.846567 -4.9605212
-5.7163792 16.991093 -4.8880053
-5.6730099 17.037323 -4.9639006
-5.4250007 17.202156 -4.8900251
-5.0392489 17.474165 -4.8457971
-4.8483405 17.607794 -4.8142948
-4.4654422 17.88661 -4.7958689
-4.1631317 18.112244 -4.8009534
-3.9590323 18.258652 -4.7698088
-3.5966873 18.532635 -4.7760487
-3.3189166 18.730034 -4.7115331
-3.268836 18.779375 -4.7673464
-3.076906 18.916122 -4.7187033
-2.6953442 19.205399 -4.7002106
-2.4506607 19.377789 -4.6171565
-2.4279981 19.4172 -4.7256131
-2.15044 19.619846 -4.6585002
-1.7965558 19.897448 -4.6596923
-1.6520948 19.991699 -4.5623093
-1.3004191 20.27664 -4.5926704
-0.95910746 20.548855 -4.5910726
-0.75049621 20.703148 -4.5241346
-0.42257336 20.969252 -4.5288281
-0.13433473 21.193602 -4.4785018
0.13582456 21.411106 -4.4593639
0.47899655 21.692926 -4.454102
0.67046058 21.83519 -4.3716431
0.73862296 21.914993 -4.4891987
0.94052052 22.073313 -4.4382224
1.3318232 22.389782 -4.3795533
1.5096135 22.528814 -4.3238668
1.8576003 22.822233 -4.3149605
2.1073914 23.017429 -4.2233419
2.134248 23.062368 -4.3367596
2.3597994 23.236427 -4.2360067
-14.485702 11.328003 -5.5667729
-14.264404 11.464043 -5.5718694
-14.038826 11.596728 -5.5369167
-13.651709 11.83309 -5.5241904
-13.364758 11.996277 -5.4375138
-13.317106 12.039094 -5.5168424
-13.072947 12.179939 -5.4500422
-12.677388 12.427528 -5.4509015
-12.455949 12.559094 -5.4063544
-12.397935 12.605655 -5.4646816
-12.15016 12.75281 -5.4091926
-11.731829 13.016141 -5.3947601
-11.512264 13.148166 -5.3475451
-11.172627 13.364537 -5.3369727
-10.800307 13.605348 -5.3379931
-10.596229 13.726967 -5.2765512
-10.198027 13.988978 -5.2857804
-9.9504385 14.132421 -5.1802716
-9.8913317 14.195731 -5.3132701
-9.6591158 14.335606 -5.2381124
-9.3755407 14.524817 -5.2419558
2.4730706 23.345276 -4.2959337
2.7219272 23.556488 -4.2767186
2.9310093 23.714016 -4.1528425
3.0172074 23.818922 -4.3103995
3.2232158 23.977894 -4.2012091
3.5640626 24.279238 -4.2160392
3.7354915 24.417423 -4.148551
3.8135979 24.506031 -4.2541599
4.0506549 24.697487 -4.1557407
4.3449078 24.952461 -4.1209955
-15.502249 10.729893 -5.6770682
-15.200518 10.906097 -5.6410823
-14.959333 11.043269 -5.5865979
-14.67227 11.220125 -5.6024919
-11.451562 14.200907 -5.2935729
-11.379322 14.229682 -5.2162642
-11.359042 14.267426 -5.3310413
-11.123428 14.407692 -5.2894454
-10.843743 14.601393 -5.3596749
-10.131272 15.039526 -5.265728
-9.5620909 15.406197 -5.2413335
-9.486702 15.461263 -5.2650156
-9.1987877 15.623491 -5.1404886
-8.8275747 15.883986 -5.1964493
-8.6120424 16.004135 -5.0900021
-8.2589321 16.237846 -5.0678997
-7.9691033 16.43223 -5.0545053
-7.7081647 16.613699 -5.0639029
-7.3475113 16.855438 -5.0303612
-7.0687151 17.039385 -4.9863415
-6.7826467 17.238173 -4.9761152
-6.4893794 17.439695 -4.950695
-6.2329717 17.606268 -4.8829556
-5.8302875 17.898371 -4.8921466
-5.4949207 18.144518 -4.9025316
-5.3062835 18.265535 -4.8326902
-4.9868755 18.503553 -4.8433824
-4.6902633 18.698528 -4.7404723
-4.6718731 18.732079 -4.82126
-4.4455175 18.888084 -4.7661757
-4.0511446 19.177467 -4.7325492
-3.8114698 19.351065 -4.6971173
-2.5163593 20.365179 -4.7275519
-2.3206782 20.511545 -4.6920528
-0.69506609 21.780252 -4.4831743
-0.39416474 22.030611 -4.4813805
1.3825793 23.500938 -4.2833142
1.5312026 23.608419 -4.1900988
1.6077269 23.714481 -4.3521991
-15.451806 11.838572 -5.5826569
-15.159373 12.00972 -5.5832615
-14.833199 12.213387 -5.6438284
-14.57035 12.354814 -5.5733891
-14.186805 12.576159 -5.5394735
-13.84938 12.778123 -5.5397248
-13.604245 12.909005 -5.4577689
-13.252599 13.126784 -5.4819212
-12.969782 13.283157 -5.4058633
-12.659546 13.478431 -5.4302402
-12.253998 13.726517 -5.4198761
-12.055256 13.834557 -5.3476367
-11.742203 14.031772 -5.3556151
-11.420957 14.246372 -5.4140692
-8.5126286 17.03104 -4.9362783
-8.205143 17.241261 -4.9431577
-7.8304653 17.490929 -4.9197721
-7.6062021 17.637665 -4.8912411
-7.2666774 17.867928 -4.8691802
-6.9699097 18.072931 -4.8573017
-6.7449994 18.221594 -4.8195291
-6.3706379 18.485662 -4.8068442
-6.0813208 18.679478 -4.754827
-6.0725584 18.694145 -4.7836785
-5.8252635 18.862473 -4.7420359
-5.4170413 19.157972 -4.7249932
-5.2135477 19.298189 -4.6875992
-4.9158525 19.52182 -4.6895351
-4.5372467 19.802387 -4.669354
-4.3487439 19.937027 -4.6374941
-3.9872911 20.215509 -4.6371665
-3.6762795 20.453533 -4.6237555
-3.4629056 20.607677 -4.5781555
-3.0902722 20.898026 -4.5616279
-2.849097 21.076603 -4.5137482
-2.803895 21.129704 -4.5706129
-2.5934165 21.282907 -4.5139747
-2.2086735 21.59115 -4.4974041
-2.000962 21.746836 -4.4471383
-1.7193545 21.974911 -4.4297514
-1.3609508 22.274252 -4.4296565
-1.1572843 22.431389 -4.3802114
-0.81951505 22.71492 -4.3682485
-0.56004351 22.937725 -4.370223
-0.35998693 23.089912 -4.2999392
-16.047625 11.50884 -5.6656661
-15.791756 11.656164 -5.6617055
-15.60152 11.757533 -5.6142201
-15.459064 11.859427 -5.7118878
-13.074497 14.238505 -5.3015175
-12.877562 14.348002 -5.2684216
-12.865467 14.36245 -5.2972956
-12.565452 14.534101 -5.261095
-12.197012 14.754369 -5.2479162
-11.959151 14.890069 -5.2100573
-11.630107 15.090163 -5.1996608
-11.253667 15.322842 -5.1947703
-11.004356 15.466168 -5.1454062
-10.667004 15.676726 -5.1354899
-10.313365 15.898991 -5.1238041
-10.09528 16.029659 -5.0880814
-9.665308 16.300865 -5.0600495
-9.4257793 16.444817 -5.0133314
-9.3808346 16.487995 -5.0636129
-9.1424074 16.631441 -5.0122051
-8.7398691 16.890665 -4.98033
-8.5353632 17.022749 -4.9618707
-8.3577394 17.147484 -4.9789395
-0.5214023 22.974632 -4.3826294
-0.30457747 23.146099 -4.3281183
0.035546552 23.442034 -4.3267508
0.26300943 23.616644 -4.2407317
0.32155275 23.702082 -4.3569551
0.54758883 23.877298 -4.2707763
0.8445878 24.126213 -4.2159624
1.0735837 24.323902 -4.1881595
1.3682866 24.595402 -4.2043591
1.6890436 24.880934 -4.1799288
1.8626536 25.024126 -4.122838
2.2398622 25.377024 -4.1364317
2.4633906 25.565792 -4.0676136
2.5136988 25.628529 -4.1232042
2.6956966 25.783852 -4.0678334
3.0455985 26.108543 -4.0473671
-14.608245 13.372979 -5.4409509
-14.499209 13.422173 -5.3832059
-14.083988 13.653852 -5.3444819
-13.754021 13.850259 -5.3587995
-13.577337 13.947422 -5.3305473
-13.262614 14.132975 -5.3278322
-17.396606 0.94358122 6.7041364
-17.420969 0.95790404 7.0727086
-17.292948 0.92506814 5.6106572
-17.327534 0.93554419 6.0135736
-17.36095 0.94661629 6.4178791
-17.180912 0.91321439 4.5570993
-17.213648 0.91511774 4.8460846
-17.25205 0.93214506 5.3326769
-17.169485 0.90181714 4.3554239
-17.166901 0.92656118 4.5691752
-18.05192 0.90896022 13.263233
-18.071886 0.91232872 13.58627
-18.096109 0.90788341 13.851391
-17.979923 0.9204101 12.4991
-18.010967 0.92349154 12.941345
-18.040052 0.92028064 13.275989
-17.887651 0.92102587 11.392678
-17.91721 0.92714202 11.824144
-17.948721 0.92816752 12.219961
-17.798315 0.91742194 10.343854
-17.821274 0.92335194 10.670538
-17.866589 0.9259702 11.214679
-17.728241 0.9141562 9.5619946
-17.768459 0.92443234 10.108871
-17.559462 0.97134787 8.5221558
-17.602005 0.9696784 8.9243498
-17.661877 0.94825602 9.2800055
-17.480072 0.97353446 7.7858148
-17.521816 0.98182541 8.2738371
-17.422249 0.97571504 7.2715054
-17.448153 0.97702962 7.5245214
-18.702919 1.4518843 15.303223
-18.607773 1.4787048 14.284586
-18.64271 1.4718301 14.709769
-18.673882 1.4654408 15.092526
-18.527874 1.4851471 13.184822
-18.550787 1.4856179 13.536102
-18.583931 1.4846275 14.024215
-18.464699 1.4944729 12.43463
-18.502476 1.4923812 12.941485
-18.365297 1.5161084 11.424147
-18.415581 1.4988018 11.822428
-18.438946 1.4988596 12.146614
-18.273922 1.5249641 10.365731
-18.275499 1.5410823 10.639956
-18.289083 1.5597585 11.116027
-18.172602 1.6088288 10.377152
-18.120468 1.5221531 8.4380388
-18.136984 1.5396107 8.8895359
-18.110212 1.5848254 9.2332191
-18.036442 1.51705 7.3918562
-18.07259 1.5157806 7.7882557
-18.10758 1.5140318 8.1694059
-17.938707 1.5171891 6.3034954
-17.965527 1.5190967 6.6249547
-18.009178 1.5183909 7.1021714
-17.870378 1.5142454 5.5255837
-17.91107 1.5172349 6.0032353
-17.772617 1.5087258 4.4261966
-17.814264 1.512702 4.9114547
-17.839407 1.5195748 5.2653747
-17.675198 1.5027478 3.3571851
-17.708506 1.5063843 3.7394972
-17.746635 1.5092615 4.1650443
-17.654278 1.5024042 3.1431634
-19.179756 2.0243809 15.285123
-19.083546 2.0508904 14.210381
-19.119905 2.0438485 14.680886
-19.145308 2.0391741 15.017896
-19.004349 2.0657301 13.192141
-19.030682 2.0617363 13.549168
-19.060089 2.0576942 13.959969
-18.922905 2.0773985 12.091587
-18.949234 2.0729036 12.429171
-18.977121 2.0716722 12.8658
-18.859314 2.0886934 11.296095
-18.898539 2.0832026 11.816746
-18.772861 2.1042855 10.239361
-18.807425 2.098253 10.663486
-18.836233 2.0945778 11.047688
-18.690914 2.1131973 9.1385965
-18.716505 2.1119792 9.5120335
-18.716272 2.1361086 10.001604
-18.627934 2.1246555 8.3996344
-18.667713 2.1188869 8.8949471
-18.53754 2.1395707 7.3249688
-18.577848 2.1317213 7.7781558
-18.601801 2.1297476 8.1022758
-18.449215 2.1510313 6.2327447
-18.479082 2.1469433 6.5960541
-18.511671 2.1448584 7.0408182
-18.372477 2.154459 5.1740794
-18.395348 2.1543467 5.505496
-18.425196 2.1547539 5.9506736
-18.307552 2.1635244 4.4066453
-18.339912 2.1623087 4.8508768
-18.363365 2.1617992 5.181272
-18.220259 2.1719875 3.3175938
-18.255718 2.1686475 3.7600887
-18.28594 2.1649919 4.1237917
-18.169857 2.173012 2.6242936
-18.199663 2.1734726 3.0533576
-19.620605 2.6136477 14.968481
-19.65399 2.6023417 15.296566
-19.562796 2.6249433 14.170676
-19.597622 2.6190281 14.676793
-19.478746 2.6465263 13.122917
-19.513794 2.6371975 13.554273
-19.539904 2.6321988 13.925749
-19.401344 2.6624174 12.017343
-19.432476 2.6537037 12.40034
-19.45343 2.6537788 12.822261
-19.345758 2.6760006 11.264991
-19.377224 2.6710773 11.771972
-19.264532 2.6992979 10.240624
-19.296522 2.6903417 10.653811
-19.319057 2.6850531 10.97256
-19.191172 2.7142859 9.1042461
-19.217978 2.7085314 9.5147314
-19.20631 2.731261 9.9503145
-19.107988 2.7399566 8.0477495
-19.134644 2.7315218 8.3827105
-19.164946 2.7237678 8.8172503
-19.050308 2.7572811 7.2817206
-19.087326 2.7452097 7.7445641
-19.095846 2.748913 8.0560055
-18.974525 2.778213 6.1912336
-19.001415 2.7718737 6.6170936
-19.025251 2.7664766 6.9985266
-18.901134 2.7980793 5.0919442
-18.927874 2.7904253 5.4816308
-18.950872 2.7863119 5.8967996
-18.846773 2.8151345 4.3390274
-18.88261 2.8041024 4.8440328
-18.77269 2.8368266 3.2363002
-18.804678 2.8272035 3.7067668
-18.826014 2.8216972 4.0499043
-18.704178 2.8565075 2.1774328
-18.727987 2.8505828 2.5807688
-18.75032 2.8457732 2.983212
-18.652773 2.8736176 1.4525819
-18.683861 2.8642068 1.9264019
-20.10681 3.1859396 14.931067
-20.140753 3.1749265 15.278689
-20.028473 3.2041383 13.837506
-20.03713 3.2069836 14.125827
-20.075148 3.1968236 14.614642
-19.966742 3.2234521 13.06827
-19.991989 3.2190161 13.512454
-20.01326 3.2146101 13.850345
-19.888943 3.2473357 11.980686
-19.914324 3.2406371 12.392508
-19.935308 3.2358994 12.752586
-19.813725 3.2733421 10.917639
-19.835247 3.2660348 11.240901
-19.869556 3.2539713 11.716439
-19.747665 3.3023732 10.174049
-19.79089 3.2825844 10.629146
-19.689444 3.3216128 9.0721626
-19.718639 3.3094921 9.5052671
-19.705893 3.3257275 9.9365759
-19.617521 3.3530557 7.967351
-19.642391 3.3419025 8.3519888
-19.668943 3.3305972 8.7785454
-19.563622 3.3795278 7.2164559
-19.598782 3.3622611 7.7176967
-19.501879 3.4094312 6.1485777
-19.523277 3.3994772 6.5852733
-19.543072 3.389909 6.9264784
-19.438236 3.4429286 5.0515409
-19.463619 3.4293385 5.4971051
-19.477942 3.422482 5.8229036
-19.375797 3.4783049 3.9864759
-19.393625 3.468102 4.3093481
-19.419708 3.4536355 4.8012228
-19.33593 3.5018482 3.2411113
-19.35813 3.4887595 3.686173
-19.274109 3.5403731 2.0902596
-19.297747 3.525532 2.5905311
-19.311502 3.517271 2.9434407
-19.218605 3.5769458 1.0705596
-19.232658 3.5675848 1.3969309
-19.256735 3.5517311 1.8421439
-19.200092 3.5895212 0.7887004
-20.584806 3.7696836 14.856503
-20.629194 3.754669 15.292634
-20.514709 3.7859087 13.753629
-20.531206 3.7844193 14.133522
-20.561972 3.7768376 14.595151
-20.452446 3.8095112 13.017434
-20.486774 3.7976549 13.494457
-20.380751 3.836283 11.917985
-20.412182 3.8239198 12.403214
-20.423264 3.8228118 12.756386
-20.317909 3.8636556 10.882541
-20.336824 3.8555951 11.255489
-20.358162 3.8468721 11.65521
-20.250095 3.8986228 9.7864065
-20.241899 3.9053507 10.119912
-20.288061 3.8795803 10.564388
-20.199373 3.9282146 8.9869099
-20.225662 3.9127686 9.4744673
-20.232849 3.9093657 9.7977571
-20.133135 3.9706671 7.9746451
-20.156115 3.9555149 8.3257856
-20.183231 3.9381423 8.7350693
-20.107897 3.9868531 7.8479114
-20.136646 3.9688144 7.8771133
-20.069307 4.0164418 6.8689408
-20.086712 4.0034218 7.1888537
-20.118395 3.9810617 7.6654019
-20.032803 4.0462584 6.0861921
-20.051804 4.0297656 6.5760961
-19.981781 4.091114 5.0226665
-20.000488 4.0735316 5.4686413
-20.007528 4.0648727 5.8257422
-19.934917 4.1374536 3.9457836
-19.94385 4.1255517 4.3231645
-19.965651 4.1056156 4.7197151
-19.881691 4.1920252 2.8452668
-19.896204 4.1760278 3.1849952
-19.910643 4.1584644 3.6285837
-19.845108 4.2326441 2.0480371
-19.869183 4.2057867 2.5699487
-19.862268 4.2039948 2.8634365
-19.802481 4.2854013 0.99425358
-19.819687 4.263515 1.4295514
-19.829197 4.2484603 1.8020972
-19.797625 4.3040385 0.40511894
-19.783836 4.3055334 0.67954701
-21.217386 4.2917366 15.508005
-21.065252 4.3610115 14.795915
-21.102373 4.3509688 15.270741
-20.981232 4.3893571 13.728411
-21.01449 4.3770876 14.13719
-21.043753 4.3677673 14.533803
-20.923624 4.4100842 12.666285
-20.927742 4.4104099 12.957141
-20.957598 4.3989654 13.447997
-20.860262 4.4420128 11.908582
-20.894823 4.4243894 12.356648
-20.907135 4.4195814 12.679246
-20.798651 4.4773092 10.811371
-20.818893 4.4649525 11.185675
-20.838385 4.453742 11.58439
-20.740765 4.5174608 9.7433033
-20.729338 4.5211911 10.088542
-20.785353 4.4860535 10.547306
-20.698137 4.55129 8.9672956
-20.717964 4.5337672 9.4476109
-20.641356 4.6028614 7.8663974
-20.658587 4.5848207 8.29673
-20.671412 4.5705051 8.7079735
-20.585104 4.6599946 6.7937613
-20.600437 4.6416359 7.1801457
-20.621775 4.6195903 7.6064396
-20.552006 4.7092113 5.7323771
-20.552629 4.6999068 6.0320964
-20.570255 4.6760564 6.5139399
-20.512262 4.7575274 4.9658446
-20.525383 4.7350264 5.4111452
-20.537024 4.7176819 5.742774
-20.485748 4.795043 4.3525572
-20.49143 4.7809834 4.6452017
-21.688627 4.9034986 15.528823
-21.55447 4.9587517 14.778375
-21.59304 4.9473944 15.249513
-21.473005 4.9880066 13.690601
-21.503088 4.9766064 14.134355
-21.522299 4.970664 14.462399
-21.404493 5.0200849 12.624995
-21.421206 5.0116248 12.95105
-21.453339 4.9965487 13.429252
-21.357557 5.0477281 11.849719
-21.383236 5.0319018 12.32798
-21.294821 5.0922203 10.788915
-21.323023 5.0715718 11.232693
-21.336035 5.0610256 11.587205
-20.472116 4.8214865 3.8696926
-20.4839 4.8049297 4.1172476
-20.439283 4.886683 2.766686
-20.446608 4.8662729 3.1413732
-20.459822 4.8391352 3.6086516
-20.418966 4.9471984 1.7091362
-20.410696 4.9377685 2.0146599
-20.427149 4.9046078 2.5254531
-20.38258 5.0058255 0.96135163
-20.391758 4.9794235 1.3814803
-20.404156 4.9556017 1.7189406
-20.347847 5.0853715 -0.15436932
-20.360512 5.0538049 0.29163384
-20.367498 5.0323915 0.61916071
-20.313318 5.1661801 -1.2208431
-20.323881 5.1412578 -0.89735544
-20.33782 5.1044173 -0.39089268
-20.292572 5.2258759 -2.0165119
-20.303446 5.1905608 -1.5349604
-20.281994 5.269156 -2.6185634
-20.288689 5.2454271 -2.3000619
-21.301546 5.090209 10.686728
-21.251215 5.1355662 9.7126846
-21.235531 5.1363382 10.069747
-21.281971 5.103868 10.485792
-21.200075 5.1920619 8.6148987
-21.210484 5.1768403 8.9478054
-21.227434 5.1558886 9.393548
-21.163206 5.2373581 7.8463011
-21.182709 5.2104897 8.3281946
-21.186512 5.1990442 8.6244354
-21.11676 5.3066659 6.7237439
-21.134136 5.2775316 7.2002225
-21.1404 5.2613225 7.528007
-21.087509 5.372283 5.6517134
-21.096054 5.3496742 6.0233483
-21.106998 5.3211508 6.5138392
-21.062719 5.4250827 4.8970118
-21.079033 5.3917007 5.3604059
-21.037689 5.5001011 3.8251212
-21.046587 5.4694815 4.2620196
-21.051001 5.4474092 4.6068044
-21.014231 5.5824428 2.725178
-21.02302 5.5485811 3.1733546
-21.026279 5.5263124 3.4986029
-21.002434 5.5965652 2.6109624
-20.271627 5.3059082 -3.1040318
-20.286556 5.2838116 -2.8992832
-20.248495 5.3871112 -4.1385093
-20.252607 5.3620515 -3.7949603
-20.265226 5.3268638 -3.3712413
-20.226822 5.4748755 -5.2413211
-20.229525 5.4504452 -4.9078808
-20.236465 5.4160495 -4.4619346
-20.208488 5.5289435 -5.8550529
-20.216879 5.4987602 -5.4971824
-20.214016 5.4823132 -5.2336488
-20.189283 5.6301208 -7.1011038
-20.195021 5.5933175 -6.64219
-20.202976 5.5659485 -6.330327
-20.169544 5.7246685 -8.2109518
-20.175411 5.6902723 -7.7995901
-20.17938 5.6583147 -7.4012213
-20.159836 5.7491007 -8.453764
-22.144968 5.5311141 15.474054
-22.059124 5.5574899 14.404005
-22.069565 5.5558286 14.723437
-22.108624 5.5433602 15.177137
-21.990686 5.5867214 13.646306
-22.023821 5.5723162 14.083291
-22.043531 5.5650535 14.414709
-21.932631 5.6190748 12.546606
-21.951813 5.6070061 12.945494
-21.961462 5.6007838 13.360588
-21.872252 5.6634316 11.481543
-21.882536 5.6527843 11.808669
-21.903545 5.6361904 12.263144
-21.831156 5.7001324 10.743114
-21.849983 5.6801958 11.195331
-21.780993 5.7586761 9.6365385
-21.775835 5.7465572 10.073075
-21.812193 5.7175207 10.441509
-21.740772 5.8231549 8.5293112
-21.74843 5.8030562 8.9068642
-21.760519 5.7798443 9.3359461
-21.71093 5.8902674 7.4693294
-21.712189 5.8729777 7.7899671
-21.725481 5.8437405 8.2488451
-21.690678 5.9052281 7.3798828
-21.689487 5.9001188 7.4853778
-20.991339 5.668457 1.6572266
-20.995962 5.643013 1.9827365
-21.007357 5.606225 2.4258668
-20.978342 5.7327466 0.87757677
-20.983877 5.6933165 1.3702561
-20.961266 5.8287802 -0.23988059
-20.968296 5.7853065 0.26240325
-20.971884 5.7590842 0.576451
-20.948753 5.9197555 -1.2641987
-20.95071 5.8868742 -0.88150954
-20.95331 5.8534117 -0.49035215
-20.934937 6.0228868 -2.3699794
-20.937738 5.9913163 -2.0273173
-20.937963 5.9572735 -1.633795
-20.934597 6.0414157 -2.5768912
-20.150187 5.7939701 -8.9631615
-20.162134 5.7638292 -8.6673203
-20.138268 5.8492041 -9.5818405
-20.146029 5.8193345 -9.2598562
-21.681023 5.948873 6.6995778
-21.689175 5.9187436 7.1501908
-21.653503 6.032558 5.6037374
-21.664591 5.9984832 6.0346022
-21.662727 5.9773359 6.3824415
-21.641348 6.1180325 4.4974699
-21.641541 6.0899658 4.8752279
-21.645872 6.0543919 5.3425174
-21.6238 6.185276 3.751878
-21.629951 6.1425395 4.2538357
-21.60837 6.2821288 2.6929426
-21.613932 6.2432451 3.1121645
-21.612127 6.2154174 3.4552953
-21.61146 6.3420467 2.0047679
-21.603899 6.3149009 2.3480644
-20.931993 6.0964527 -3.1714642
-20.935553 6.0617194 -2.8104746
-20.920671 6.2009521 -4.2260733
-20.927286 6.1537209 -3.7636836
-20.925547 6.1228895 -3.4198666
-20.915611 6.3107123 -5.3339958
-20.917212 6.2741675 -4.9686804
-20.918474 6.2332306 -4.5517812
-20.915972 6.4167557 -6.3998966
-20.914539 6.3778796 -6.0044966
-20.912821 6.3391633 -5.6058607
-20.909662 6.4956608 -7.1346874
-20.911858 6.4443293 -6.6469393
-20.901588 6.4240427 -6.3875608
-22.470722 6.2305856 12.497945
-22.509821 6.2088056 12.781804
-22.401035 6.2873626 11.388858
-22.400396 6.2764521 11.806337
-22.428236 6.2545958 12.220174
-22.348402 6.3470955 10.347087
-22.341564 6.337141 10.688488
-22.36821 6.3084688 11.177436
-22.310371 6.4008465 9.5249653
-22.285349 6.3872118 10.067578
-22.32073 6.3586307 10.368791
-22.291296 6.4669762 8.4574699
-22.282448 6.4465013 8.889081
-22.276379 6.4267278 9.312129
-22.300428 6.4943047 7.94449
-22.266525 6.4952755 8.1763697
-21.606949 6.3843637 1.5731093
-21.610134 6.3657055 1.7548755
-21.608849 6.4909654 0.46421105
-21.602823 6.4561858 0.84808481
-21.603411 6.4111748 1.3097889
-21.601625 6.571651 -0.28778899
-21.602011 6.5222225 0.19095276
-21.606539 6.6834712 -1.3596132
-21.598833 6.6378274 -0.89980561
-21.599518 6.6032619 -0.57893234
-21.60915 6.7998781 -2.4128201
-21.605202 6.7614322 -2.0545127
-21.596916 6.7258453 -1.6971085
-20.910572 6.5150633 -7.3274202
-20.908405 6.612071 -8.2389975
-20.909201 6.5698371 -7.8435783
-20.907244 6.5299602 -7.4516048
-20.908512 6.7335343 -9.3693495
-20.908342 6.6910896 -8.976634
-20.905529 6.648046 -8.5604935
-20.903957 6.7549272 -9.5400839
-21.613819 6.8133059 -2.5520549
-21.624132 6.9268274 -3.569201
-21.611097 6.8919163 -3.2140968
-21.607695 6.8400865 -2.7549155
-21.621912 7.0178266 -4.3114657
-21.617048 6.9652934 -3.8568654
-21.635281 7.1527624 -5.4539089
-21.628855 7.0887604 -4.9164944
-21.621561 7.0554852 -4.6163502
-21.64399 7.2154131 -5.9819026
-21.630106 7.1815567 -5.657619
-21.65584 7.2760162 -6.5013747
-21.648989 7.2561369 -6.3191514
-21.684057 7.4057837 -7.6023192
-21.661121 7.3654351 -7.2024407
-21.65456 7.314971 -6.7929664
-21.669729 7.4233084 -7.672308
14.089232 26.83333 18.916277
14.064617 26.831339 19.321758
14.054371 26.839102 19.717804
14.173456 26.851946 17.858078
14.149347 26.847322 18.176079
14.120577 26.845831 18.661915
14.284781 26.90202 17.126413
14.217856 26.871408 17.552141
14.196565 26.869217 17.877544
14.308343 26.872698 16.005148
14.363054 26.928247 16.402452
14.320663 26.916903 16.862816
14.388997 26.929594 15.988647
13.690857 27.42112 18.899797
13.669363 27.420645 19.269518
13.651573 27.424713 19.675114
13.757446 27.42716 17.839972
13.744018 27.430471 18.162855
13.712905 27.427444 18.652853
13.82925 27.450638 17.077936
13.794613 27.442678 17.528124
13.774629 27.44096 17.854366
13.897357 27.456848 15.940943
13.888732 27.46847 16.394905
13.863214 27.465282 16.799026
13.91157 27.425529 14.867971
13.892485 27.427427 15.292008
13.899172 27.4498 15.728953
14.054688 27.510328 14.215752
13.965883 27.454742 14.544527
14.046365 27.447239 12.697628
14.039691 27.454632 13.03789
14.102757 27.520391 13.505075
14.099653 27.532543 13.891852
14.134454 27.487909 11.954374
14.092835 27.471361 12.38065
14.067261 27.463945 12.71604
14.210766 27.508799 10.890207
14.19361 27.508238 11.249335
14.166915 27.502281 11.659784
14.277538 27.533449 10.121343
14.242088 27.523052 10.60905
14.34684 27.570444 9.6474218
14.330691 27.565338 9.8620186
13.238701 27.967646 18.867403
13.212113 27.965771 19.280014
13.191404 27.966328 19.635378
13.314976 27.981436 17.800123
13.29401 27.978754 18.125433
13.258893 27.971844 18.604252
13.372495 27.995701 17.026123
13.339675 27.988899 17.503933
13.451125 28.016733 15.925699
13.420815 28.009779 16.390541
13.399474 28.007088 16.76309
13.526374 28.039974 14.855415
13.504223 28.035233 15.239217
13.472536 28.024551 15.66392
13.617303 28.090038 14.108099
13.552263 28.051788 14.575168
13.662201 28.094416 13.038485
13.650009 28.097773 13.491891
13.636973 28.098419 13.862581
13.727645 28.118458 11.941451
13.703319 28.108696 12.332729
13.689316 28.108633 12.753469
13.793282 28.146879 10.878616
13.774877 28.139164 11.199504
13.748158 28.127977 11.648542
13.842903 28.170713 10.087676
13.816127 28.159241 10.587559
13.823075 28.171904 10.903293
13.907889 28.203369 8.996438
13.883489 28.191757 9.4593
13.870996 28.18874 9.8379459
13.967225 28.235136 7.958921
13.951632 28.227711 8.3044109
13.934018 28.220163 8.7283764
14.02662 28.268688 6.8598719
14.018506 28.266439 7.2014608
13.994238 28.253119 7.6765089
14.080857 28.303816 6.065135
14.060996 28.293257 6.5690923
14.048706 28.286917 6.8768129
14.134887 28.33774 5.0111456
14.124222 28.332579 5.4053359
14.109381 28.324507 5.8214808
14.199988 28.382479 3.9061596
14.184045 28.372267 4.3102846
14.173847 28.366846 4.6947703
14.249094 28.418064 3.1548951
14.227578 28.403193 3.6295798
14.233531 28.410086 3.9663262
14.277303 28.438862 2.7125647
14.274681 28.437584 2.9042828
12.740115 28.521845 19.720263
12.788547 28.514351 18.8074
12.756557 28.510941 19.268578
12.752407 28.531206 19.694029
12.859778 28.526005 17.771156
12.8373 28.524076 18.146465
12.814853 28.523806 18.540684
12.937671 28.54751 16.679699
12.928761 28.553509 17.014198
12.893342 28.542845 17.489008
12.995525 28.568264 15.878016
12.974789 28.567608 16.354094
12.956939 28.565237 16.696203
13.069986 28.599424 14.821526
13.054842 28.598734 15.229338
13.030877 28.590942 15.633792
13.155676 28.646751 13.770735
13.158076 28.656715 14.081899
13.104109 28.621449 14.541303
13.188672 28.658255 12.968974
13.188448 28.668949 13.480377
13.193517 28.681633 13.830171
13.253242 28.696497 11.878181
13.226558 28.680185 12.340263
13.215023 28.676649 12.719389
13.305779 28.730536 10.847032
13.291255 28.721333 11.191704
13.274858 28.711872 11.61202
13.361361 28.771927 9.7439947
13.352275 28.765676 10.082387
13.331415 28.750616 10.558988
13.404881 28.808186 8.9436693
13.389031 28.795139 9.43153
13.381652 28.789785 9.7616558
13.431224 28.832397 8.0281086
13.436262 28.836046 8.3307409
13.435815 28.835171 8.7008543
12.262524 29.039961 19.549463
12.2594 29.047657 19.713106
12.324466 29.050428 18.753527
12.286558 29.044559 19.258331
12.280509 29.058218 19.567459
12.396996 29.061728 17.668642
12.367344 29.057129 18.134201
12.344748 29.05579 18.508553
12.479128 29.092491 16.597441
12.455021 29.084845 16.965691
12.423712 29.074364 17.400795
12.49905 29.091503 16.065186
12.497207 29.100246 16.351761
13.456693 28.855104 7.8914976
13.469797 28.865929 8.0662527
13.510497 28.908609 6.7820616
13.499063 28.895887 7.161942
13.479346 28.87602 7.6241932
13.537283 28.942654 5.7197175
13.555446 28.955225 5.9967389
13.528797 28.926792 6.5228348
13.595892 29.003464 4.9682984
13.57993 28.983419 5.4193473
13.575729 28.975248 5.7801189
13.639421 29.059217 3.8626661
13.630624 29.044249 4.2849369
13.623699 29.031935 4.6736331
13.687324 29.121504 2.7998433
13.676683 29.105797 3.1149101
13.665527 29.085871 3.6395149
13.70302 29.139938 2.5720632
13.710483 29.140858 2.8248296
12.333394 29.12257 19.785532
12.528824 29.102163 15.533079
12.528916 29.112381 15.845166
12.516775 29.114416 16.234617
12.593525 29.14259 14.778074
12.572842 29.135202 15.235469
12.551843 29.124702 15.555859
12.654613 29.178009 13.681736
12.638451 29.170002 14.088131
12.619121 29.160065 14.492879
12.720006 29.226963 12.623049
12.704919 29.215708 12.933969
12.685168 29.202757 13.404995
12.761745 29.262247 11.824121
12.7391 29.242847 12.30885
12.737599 29.243673 12.637794
12.809088 29.308481 10.736293
12.791452 29.29019 11.207204
12.776688 29.275928 11.577062
12.852546 29.358408 9.697156
12.84764 29.350235 10.02194
12.828835 29.328644 10.470185
12.891868 29.412552 8.5980225
12.888195 29.403151 8.9277401
12.874002 29.382271 9.4159136
12.929477 29.463522 7.8569627
12.915964 29.441938 8.2583723
12.910851 29.429905 8.6155682
12.975395 29.536016 6.7415719
12.963847 29.513968 7.1369562
12.957504 29.496836 7.5589066
13.003883 29.598545 5.6368213
13.000534 29.582396 6.0151234
12.986436 29.554804 6.4610338
13.030245 29.646538 4.9994926
13.029368 29.631083 5.3878336
12.080782 29.669626 15.494842
12.061673 29.659822 15.820619
12.032723 29.646011 16.289661
12.12155 29.693134 14.718468
12.097343 29.678886 15.196841
12.184849 29.742687 13.618724
12.155376 29.717669 14.094933
12.139661 29.706219 14.420432
12.228699 29.784637 12.581404
12.219423 29.774948 12.909607
12.198314 29.754608 13.345204
12.27885 29.844259 11.482613
12.26462 29.826038 11.819575
12.250888 29.808514 12.262748
12.310242 29.88969 10.682635
12.292432 29.862669 11.171826
12.290039 29.855364 11.494612
12.344733 29.951086 9.6299887
12.336452 29.931021 10.048247
12.324697 29.909603 10.43285
13.041448 29.664871 4.7951541
13.066829 29.729126 3.8196437
13.057023 29.700649 4.2713308
13.059318 29.687675 4.6355376
13.094039 29.805319 2.7180789
13.091665 29.783323 3.1316445
13.085607 29.759796 3.5183547
13.126403 29.86413 2.1305461
13.111013 29.833576 2.459378
11.353199 30.13756 19.332117
11.424362 30.145111 18.342627
11.40871 30.152189 18.703861
11.380338 30.15115 19.121649
11.47472 30.167353 17.797659
11.455601 30.163815 18.092503
12.356385 29.966133 9.5181179
12.381952 30.026829 8.5194092
12.371315 30.001575 8.9104614
12.3616 29.977484 9.3260746
12.400764 30.091806 7.4556508
12.399716 30.074717 7.8045683
12.391094 30.046989 8.2473173
12.42976 30.158268 6.7049675
12.422012 30.128786 7.1299162
12.412784 30.103111 7.4679823
12.455289 30.247137 5.5850191
12.446261 30.214151 5.9926844
12.447422 30.191853 6.406116
12.469985 30.332088 4.4863186
12.468292 30.30518 4.8669443
12.46038 30.267853 5.3296156
12.486091 30.400309 3.7354794
12.478371 30.355577 4.2630162
12.480066 30.423368 3.3405507
12.491555 30.426386 3.4496582
12.498386 30.495558 2.6273222
12.496188 30.455822 3.1165195
12.508432 30.591377 1.5635263
12.504953 30.553965 1.9764581
12.506348 30.524061 2.3632042
12.518492 30.692934 0.4968195
12.516304 30.662657 0.8180272
12.516397 30.622864 1.2807099
12.524423 30.719515 0.26236859
11.083818 30.743093 16.312529
11.166226 30.815067 15.398782
11.165167 30.822073 15.762053
11.178127 30.850496 16.221365
11.215074 30.861158 14.334444
11.201143 30.846483 14.664738
11.180104 30.827375 15.165812
11.250638 30.90654 13.553603
11.233197 30.882851 14.017077
11.237276 30.887102 14.355306
11.286147 30.969578 12.448778
11.274639 30.943939 12.957019
11.275904 30.939508 13.27422
11.315458 31.041006 11.408244
11.320009 31.032209 11.750831
11.309766 31.003838 12.218319
11.347066 31.111382 10.710958
11.348967 31.093605 11.105271
11.402926 31.182125 10.589194
