# .PCD v0.7 - Point Cloud Data file format
VERSION 0.7
FIELDS x y z
SIZE 4 4 4
TYPE F F F
COUNT 1 1 1
WIDTH 379
HEIGHT 1
VIEWPOINT 0 0 0 2.98023e-07 1 0 -0
POINTS 379
DATA ascii
-2.730844 -25.007877 -3.0888309
-3.5053613 -24.50293 -3.0392127
-3.2210164 -24.629667 -3.0499191
-2.8484185 -24.829199 -3.0686474
-4.2057128 -24.113413 -3.0054936
-3.7613785 -24.332294 -3.0231876
-3.4756589 -24.485184 -3.0365131
-4.3561597 -24.029467 -2.9985573
-5.201777 -23.600025 -2.967303
-4.753571 -23.822287 -2.9827211
-4.4270201 -23.987659 -2.9950638
-6.1676383 -23.081858 -2.9335573
-5.7599788 -23.305084 -2.9476776
-5.4152937 -23.47558 -2.9581623
-7.1591811 -22.571054 -2.9074733
-6.7516508 -22.78233 -2.9176419
-6.3996716 -22.954773 -2.9259989
-8.1545038 -22.06975 -2.8889096
-7.7474732 -22.294128 -2.8980134
-7.4136777 -22.433018 -2.9009662
-9.1625519 -21.576059 -2.8782203
-8.743783 -21.716331 -2.8745196
-8.3589964 -21.903625 -2.8786733
-9.7237415 -21.214441 -2.8654709
-9.3983746 -21.450516 -2.8755336
-10.707498 -20.60512 -2.8512661
-10.244819 -20.843199 -2.8517208
-9.9688606 -20.983418 -2.8524363
-11.628861 -20.123253 -2.8537831
-11.235456 -20.329741 -2.8520904
-10.951326 -20.471331 -2.850646
-12.572834 -19.710182 -2.870558
-12.263254 -19.806164 -2.8603904
-2.6550968 -25.044846 -2.203419
-3.5784645 -24.516409 -2.1676371
-3.2497647 -24.680414 -2.1779327
-2.8078239 -24.906723 -2.192874
-4.5246153 -24.012754 -2.1378167
-4.2212644 -24.177782 -2.1473231
-3.7933638 -24.394962 -2.1599629
-5.5193758 -23.510397 -2.1128123
-5.2259016 -23.650642 -2.1191127
-4.7813253 -23.883802 -2.131063
-6.5042176 -23.00074 -2.0912149
-6.1978221 -23.151012 -2.096813
-5.7953444 -23.352428 -2.1050847
-5.4957161 -23.495653 -2.1110864
-7.217958 -22.614809 -2.0769114
-6.7515388 -22.852655 -2.0848143
-6.4791021 -22.989792 -2.0896974
-8.2058477 -22.10413 -2.0628586
-7.7574682 -22.326199 -2.0678897
-7.4291735 -22.487122 -2.071959
-9.2186728 -21.626772 -2.0568602
-8.7487831 -21.835878 -2.0580668
-8.4227133 -21.984615 -2.0597367
-10.163156 -21.077335 -2.0472243
-9.7428474 -21.321266 -2.0509474
-9.4706001 -21.484188 -2.0541503
-11.154045 -20.567764 -2.0470402
-10.745995 -20.777079 -2.0465415
-10.39966 -20.950432 -2.0463405
-12.163893 -20.045738 -2.0514359
-11.78125 -20.225149 -2.0478354
-11.385831 -20.438986 -2.0469284
-12.300344 -19.984489 -2.0530691
-14.05923 -19.055285 -2.0717838
-13.90865 -19.145983 -2.0704014
-14.529416 -18.905003 -2.0860195
-14.277328 -18.925764 -2.0741291
-16.349091 -18.011574 -2.1281688
-19.62269 -16.195213 -2.2259629
-2.6782405 -25.073908 -1.3215547
-2.4821587 -25.182671 -1.3261634
-3.6460135 -24.563873 -1.3014479
-3.2447886 -24.77636 -1.309586
-2.8972893 -24.949379 -1.316335
-4.60708 -24.055277 -1.283603
-4.2791419 -24.222357 -1.2891192
-3.8805285 -24.432453 -1.2965093
-5.5987206 -23.546963 -1.2684582
-5.2507887 -23.719093 -1.2731864
-4.8402462 -23.927198 -1.2793807
-6.5813065 -23.020329 -1.2547835
-6.2650428 -23.187346 -1.2588032
-5.8337655 -23.420691 -1.2649434
-7.5771332 -22.511557 -1.2448207
-7.2451544 -22.676128 -1.2476194
-6.8012171 -22.903004 -1.2521247
-8.521966 -22.01185 -1.2370294
-8.220335 -22.175531 -1.2394786
-7.7930312 -22.393488 -1.2426498
-9.509408 -21.505491 -1.2323248
-9.2308464 -21.639965 -1.2329967
-8.7788658 -21.870071 -1.2350771
-10.221153 -21.130392 -1.2301729
-9.7713833 -21.362324 -1.2311379
-9.4921923 -21.496273 -1.2315177
-11.20882 -20.607094 -1.2294184
-10.780231 -20.830301 -1.2292331
-10.478102 -20.988697 -1.2294236
-12.167201 -20.109619 -1.2318097
-11.75351 -20.322565 -1.2303885
-11.424549 -20.486347 -1.2293098
-13.161414 -19.574099 -1.2361785
-12.761814 -19.785004 -1.2339092
-12.41527 -19.972437 -1.2324638
-14.155 -19.067419 -1.2445501
-13.745343 -19.277126 -1.2408245
-13.396231 -19.447491 -1.2376146
-14.380514 -18.940989 -1.2463417
-19.283905 -16.551672 -1.3318454
-18.975565 -16.752771 -1.3265769
-19.615128 -16.263229 -1.3353821
-19.302294 -16.477552 -1.330063
-20.279348 -15.854671 -1.3490598
5.8377857 -29.575296 -0.52620149
4.8762946 -29.070843 -0.51452452
5.2567835 -29.274044 -0.51915842
5.6017265 -29.447578 -0.52322823
3.8876531 -28.561293 -0.50313795
4.2199717 -28.730007 -0.50687087
4.6124897 -28.936544 -0.51146704
3.6964679 -28.457933 -0.50090951
2.9003761 -28.051203 -0.49224755
3.2467399 -28.223545 -0.49589854
3.5765877 -28.399542 -0.49963185
1.91119 -27.536114 -0.48180163
2.246248 -27.702393 -0.48514068
2.6631846 -27.922709 -0.48960653
0.91840374 -27.017651 -0.47186834
1.2442375 -27.178661 -0.47490871
1.6556212 -27.393145 -0.47902524
-0.033463959 -26.514696 -0.46281916
0.25451648 -26.669748 -0.46555132
0.70353723 -26.898495 -0.46968064
-1.0217655 -26.010029 -0.45435715
-0.75256306 -26.139656 -0.45646393
-0.28458512 -26.385286 -0.46058962
-2.0060618 -25.503664 -0.44654307
-1.7261255 -25.634459 -0.44847071
-1.2760034 -25.866936 -0.45206371
-0.99877542 -25.998859 -0.45414653
-2.7181506 -25.116327 -0.44097421
-2.2557673 -25.358032 -0.4443801
-1.9889715 -25.494253 -0.4463563
-3.7022133 -24.600679 -0.43424785
-3.2581067 -24.827358 -0.43708754
-2.9668698 -24.982065 -0.4391287
-4.6863885 -24.083813 -0.42827374
-4.2394638 -24.315496 -0.43084073
-3.920366 -24.48098 -0.43276173
-5.6613374 -23.574249 -0.42319199
-5.2621193 -23.78581 -0.42523125
-4.9121637 -23.967916 -0.42705899
-6.6214128 -23.077497 -0.41907424
-6.2422619 -23.273251 -0.42060342
-5.8947001 -23.447983 -0.42202365
-7.6121502 -22.560379 -0.41560858
-7.2466545 -22.745361 -0.41669351
-6.8811011 -22.934284 -0.41795295
-8.5987873 -22.048645 -0.41309473
-8.2531939 -22.221918 -0.41378242
-7.8449311 -22.432135 -0.41481209
-9.581419 -21.521412 -0.4112047
-9.2640324 -21.68597 -0.41163301
-8.820406 -21.923744 -0.41249412
-10.570357 -21.011475 -0.41055256
-10.243131 -21.174486 -0.41058597
-9.7998886 -21.400826 -0.41086274
-11.514336 -20.507517 -0.41052431
-11.246412 -20.645365 -0.41037366
-10.785789 -20.88777 -0.41034383
-12.504781 -20.001698 -0.41174623
-12.225352 -20.134045 -0.41116142
-11.774899 -20.366434 -0.4106428
-11.497769 -20.498844 -0.41025025
-13.217619 -19.61585 -0.41288143
-12.750498 -19.86437 -0.41202313
-12.485687 -19.993826 -0.41145244
-14.526226 -19.014124 -0.41766438
-14.207175 -19.105614 -0.41559529
-13.759689 -19.329292 -0.41415882
-13.466555 -19.484015 -0.41342145
-14.506589 -18.989729 -0.41711783
-14.422773 -18.992165 -0.41626567
-18.579905 -17.006105 -0.43965241
-18.261496 -17.098322 -0.43666729
-19.411785 -16.552429 -0.44529271
-18.529427 -16.955309 -0.43840444
-19.282751 -16.4389 -0.44229302
2.8195605 -28.075495 0.49252757
3.2498455 -28.300083 0.49723199
3.5034909 -28.427244 0.49995357
1.8409287 -27.570473 0.48231864
2.2518682 -27.778851 0.48647785
2.6001115 -27.954525 0.49005514
0.88557541 -27.065704 0.47268876
1.2793955 -27.271961 0.47656405
1.6093602 -27.44241 0.47983387
-0.10478566 -26.550579 0.46344739
0.24199767 -26.726696 0.46654168
0.62490046 -26.92845 0.47016597
-1.0913832 -26.038683 0.45490548
-0.74591589 -26.215551 0.45778674
-0.33701873 -26.426634 0.46131906
-2.0790334 -25.51944 0.44692034
-1.7380786 -25.693199 0.44950914
-1.3133518 -25.915085 0.45293301
-3.0295224 -25.016439 0.43985453
-2.7458496 -25.168428 0.44193214
-2.2986212 -25.398882 0.44515669
-4.0116911 -24.507061 0.43346554
-3.7320523 -24.64135 0.43502787
-3.2788136 -24.881357 0.4380677
-4.7216759 -24.130428 0.42919287
-4.2706547 -24.362267 0.43173528
-3.9941142 -24.49704 0.43324366
-5.7135453 -23.611742 0.42404673
-5.2479858 -23.859619 0.42643347
-4.9834266 -23.991056 0.42770454
-6.7027869 -23.101595 0.41987693
-6.2556682 -23.324553 0.42152876
-5.9671135 -23.481091 0.42289135
-7.6864157 -22.585499 0.41644049
-7.2534485 -22.802198 0.41767681
-6.9180045 -22.978619 0.41887712
-8.6591215 -22.071463 0.41385087
-8.2502384 -22.28154 0.4147408
-7.9390655 -22.442705 0.41552892
-9.6214809 -21.567518 0.41222668
-9.2422161 -21.773571 0.41288957
-8.8941851 -21.946335 0.41333997
-10.603423 -21.050705 0.41142616
-10.256945 -21.22541 0.4114913
-9.8787327 -21.423975 0.41179967
-11.587426 -20.53031 0.41149735
-11.237889 -20.714321 0.41136301
-10.83772 -20.924376 0.41132367
-12.583924 -20.027449 0.41286111
-12.249838 -20.200129 0.4123728
-11.81207 -20.41511 0.41170016
-13.528141 -19.515141 0.41448018
-13.221663 -19.678537 0.41382948
-12.800683 -19.901155 0.41303703
-14.247781 -19.151363 0.41665915
-13.781545 -19.383722 0.41515261
-19.637373 -16.518631 0.44791603
-19.358042 -16.598879 0.44510818
-20.220598 -16.158312 0.45180354
-19.761997 -16.330595 0.44749272
-19.416698 -16.445728 0.44415259
-20.622047 -15.818135 0.45365787
5.7848024 -29.614981 0.52670538
4.795125 -29.103159 0.51485074
5.2497663 -29.336674 0.52021146
5.5270543 -29.483141 0.52359521
3.8328059 -28.608603 0.50383008
4.2479939 -28.821239 0.50851661
4.5772333 -28.984474 0.51219583
3.4893861 -28.436344 0.50008094
3.5861816 -28.473068 0.50092542
2.4413226 -28.049809 1.4755853
2.7160652 -28.151758 1.4822403
3.1731887 -28.378269 1.4965124
1.4480798 -27.51877 1.4441926
1.7295419 -27.649906 1.4519181
2.2328496 -27.917048 1.4677458
0.46732634 -27.043833 1.4175199
0.77918762 -27.150118 1.423481
1.1595879 -27.359373 1.4351358
-0.24597614 -26.636566 1.3960388
0.23036632 -26.848461 1.4071354
0.52369648 -26.952785 1.4128025
-1.5199165 -26.014479 1.3656863
-1.2304045 -26.107981 1.3697994
-0.76066208 -26.340906 1.3810667
-0.49201944 -26.467098 1.3873215
-2.2368381 -25.596827 1.3466063
-1.7978411 -25.807024 1.3557887
-1.4195262 -25.961098 1.3625982
-3.2088585 -25.088261 1.3255461
-2.7630689 -25.31015 1.3343483
-2.3708265 -25.450119 1.3395643
-4.1622305 -24.604673 1.3078132
-3.7686782 -24.773891 1.3133057
-3.3157113 -24.952646 1.3192202
-5.0791593 -24.016754 1.2865052
-4.7106242 -24.249197 1.2946315
-4.4009576 -24.418343 1.3003356
-6.0683904 -23.508984 1.2724408
-5.7404222 -23.671207 1.2765386
-5.295825 -23.898552 1.2828703
-7.0141191 -23.006948 1.2605319
-6.7508883 -23.137304 1.2631583
-6.2815013 -23.383146 1.2689294
-8.0056076 -22.500996 1.2516406
-7.7245045 -22.632833 1.2533405
-7.2722101 -22.863586 1.257404
-6.9929881 -22.997393 1.2597309
-8.7111454 -22.109623 1.2454313
-8.2449493 -22.358109 1.2488952
-7.983182 -22.491007 1.2507533
-9.6978207 -21.596855 1.2407398
-9.2547274 -21.823345 1.2423356
-8.9301548 -21.986507 1.2436819
-10.665944 -21.080206 1.2381421
-10.25051 -21.300154 1.2388633
-9.9150867 -21.474792 1.239616
-11.656784 -20.569178 1.2390682
-11.285214 -20.772985 1.2389895
-10.934417 -20.936388 1.2378644
-12.61492 -20.062965 1.2420394
-12.251927 -20.251841 1.2404937
-11.887375 -20.440918 1.2392527
-13.60365 -19.550785 1.2482529
-13.255565 -19.724154 1.2454746
-12.877687 -19.921448 1.2431859
-14.244039 -19.219213 1.2537363
-13.83836 -19.425598 1.2499741
-18.897877 -17.006769 1.332395
-19.577711 -16.554558 1.3436708
-19.254396 -16.717083 1.3363651
-18.945219 -16.940105 1.3319139
-20.199591 -16.211681 1.3574017
-19.592892 -16.474953 1.3415835
-19.447962 -16.490154 1.3362939
-20.911003 -15.97783 1.379192
5.3469834 -29.569206 1.5747889
5.7167459 -29.737898 1.5870414
4.3802013 -29.021414 1.5381751
4.7778602 -29.242016 1.5528381
5.0953999 -29.411734 1.5643702
3.4331532 -28.545477 1.5067866
3.6893318 -28.661051 1.5144728
4.1104894 -28.892893 1.5294627
3.242852 -28.470987 1.5017489
-18.681213 -17.06786 2.2138255
-19.76305 -16.5117 2.2531142
-19.123615 -16.902514 2.2329476
-18.928102 -16.837069 2.2163482
-19.69302 -16.439476 2.2443476
-18.934486 -17.000877 3.1244862
-18.937454 -16.997572 3.1244862
-5.60851 -24.04907 3.9112277
-5.2662268 -24.207186 3.9237838
-4.9340315 -24.385351 3.9405377
-6.603044 -23.548828 3.8736439
-6.2110343 -23.70756 3.8817129
-5.7985811 -23.907995 3.8964956
-7.5558057 -23.049164 3.8417864
-7.2356286 -23.168871 3.844445
-6.8036194 -23.387787 3.8578737
-8.5741472 -22.511681 3.8153751
-8.2098188 -22.662157 3.8176768
-7.7794323 -22.863894 3.8252184
-7.4754028 -22.984789 3.8281326
-9.5622482 -22.010157 3.8008499
-9.2189894 -22.14292 3.7989836
-8.788125 -22.340754 3.8024204
-8.4807281 -22.488171 3.8066354
-10.51129 -21.503689 3.7909703
-10.209447 -21.617296 3.7865314
-9.7464151 -21.859678 3.7908533
-9.4181309 -21.983963 3.7879934
-11.185362 -21.098068 3.7822261
-10.764238 -21.316233 3.7822723
-10.402041 -21.459671 3.7771459
-12.201481 -20.590874 3.7909048
-11.750506 -20.8006 3.7838926
-11.395256 -20.955156 3.7779784
-13.170639 -20.082273 3.8038006
-12.760983 -20.279442 3.7950366
-12.399617 -20.442989 3.7869155
-14.194185 -19.550432 3.8265893
-13.723063 -19.76018 3.8105073
-13.347936 -19.934484 3.7997768
-14.510368 -19.480455 3.8472722
-14.326169 -19.423431 3.8226686
