# .PCD v0.7 - Point Cloud Data file format
VERSION 0.7
FIELDS x y z
SIZE 4 4 4
TYPE F F F
COUNT 1 1 1
WIDTH 469
HEIGHT 1
VIEWPOINT 0 0 0 2.98023e-07 1 0 -0
POINTS 469
DATA ascii
14.413958 12.975436 -0.33852294
14.730688 12.811262 -0.34077379
15.12229 12.617823 -0.34377798
13.425821 13.486814 -0.33217293
13.751787 13.319966 -0.33418873
14.197264 13.09514 -0.33714208
12.46884 13.984615 -0.32703948
12.780705 13.830184 -0.32871568
13.207006 13.605906 -0.33098614
11.488987 14.49352 -0.32282862
11.76745 14.36009 -0.3240748
12.208651 14.130853 -0.3259725
10.743135 14.873647 -0.32027206
11.231118 14.641196 -0.32210237
11.509285 14.504789 -0.32320294
9.8012314 15.41455 -0.31885973
10.244061 15.163926 -0.31943747
10.564098 15.008528 -0.32036462
8.8460836 15.981773 -0.3188467
9.259203 15.751956 -0.31894815
9.6225891 15.581436 -0.31966266
7.8420877 16.361158 -0.31670198
8.2503986 16.260393 -0.31828189
8.6616907 16.073851 -0.31871858
7.6647644 16.503521 -0.31762218
5.9062233 17.317011 -0.31936693
16.398932 11.95083 0.35419288
16.690351 11.801041 0.35680366
15.410821 12.469356 0.34602398
15.741123 12.296496 0.34866852
16.162846 12.077023 0.35218647
14.419372 12.981878 0.33866835
14.742493 12.818777 0.34101671
15.156617 12.605784 0.34411001
13.470311 13.485674 0.33270651
13.757566 13.326546 0.33434105
14.203121 13.101807 0.33729595
12.486544 13.992584 0.32734951
12.769013 13.858849 0.32894152
13.217117 13.614997 0.33122376
11.497841 14.498 0.32298586
11.799352 14.343012 0.3242009
12.219459 14.132856 0.32612249
12.502122 14.00307 0.32766697
10.768978 14.88831 0.32074285
11.218467 14.668287 0.32234728
11.51364 14.506849 0.32327807
9.479229 15.470396 0.31669718
9.7381992 15.374636 0.31767991
10.227342 15.182227 0.31953922
10.533957 15.019489 0.32021806
8.4768896 15.987225 0.3158586
8.7788696 15.830182 0.31597719
9.2199535 15.616968 0.31656748
9.5049438 15.501548 0.3173953
7.4882903 16.493734 0.31618103
7.7688861 16.359304 0.31612659
8.207943 16.130926 0.31593224
6.494431 16.998331 0.31762508
6.7769818 16.867443 0.31730759
7.2251968 16.633896 0.31656373
7.5086737 16.50317 0.31647864
5.9972763 17.280079 0.31927431
6.2418504 17.1728 0.31895143
6.5240178 17.013613 0.31805956
5.4489775 17.791121 0.32478431
13.434894 13.439084 0.99589878
13.597073 13.355061 0.99883866
12.256807 13.98495 0.97458947
12.743378 13.812904 0.98495328
13.18188 13.579004 0.99182796
11.380647 14.401814 0.96199018
11.746063 14.277878 0.9689849
12.175092 14.087579 0.97584653
10.380651 14.941724 0.95350581
10.765442 14.804109 0.95933652
11.157664 14.610012 0.96344715
9.4947014 15.407053 0.94846356
9.7596989 15.315352 0.95179665
10.222161 15.12816 0.95688957
8.7798185 15.881636 0.95107275
9.2337494 15.64289 0.95200878
9.5131741 15.506817 0.95342112
7.7935128 16.394592 0.95137185
8.2194796 16.176085 0.95095253
8.5268717 16.014673 0.9508487
6.8143339 16.915798 0.95576715
7.2510519 16.682528 0.95334738
7.5778193 16.516285 0.9523406
6.2994022 17.193132 0.95965219
6.5894222 17.034071 0.95719016
5.2831554 17.701048 0.96812302
16.338717 11.925902 1.0601264
16.740084 11.716204 1.0708683
17.077726 11.546656 1.0803828
15.37564 12.429121 1.0361639
15.758121 12.226896 1.0453192
16.104589 12.053498 1.0542326
14.390052 12.942789 1.0143241
14.74268 12.765386 1.0220546
15.11825 12.563887 1.0302083
13.803902 13.250122 1.0027909
14.155972 13.069023 1.0097162
17.984983 10.992408 1.8441074
18.269003 10.859248 1.8594038
18.705063 10.632505 1.8824186
17.258474 11.381578 1.8087418
17.727835 11.137654 1.8317095
18.00845 11.00251 1.8463211
16.292053 11.894004 1.7648296
16.744511 11.65744 1.7850472
17.045416 11.509638 1.7994167
15.333505 12.391335 1.7248241
15.748224 12.179338 1.7418051
16.073498 12.01373 1.7556393
14.332771 12.918861 1.6881775
14.739971 12.705345 1.7025808
15.08482 12.530357 1.7156777
13.345913 13.432915 1.6566728
13.752522 13.221263 1.6690807
14.099838 13.049119 1.6808105
12.386967 13.940863 1.631592
12.761623 13.75259 1.6414876
13.113813 13.560019 1.6503942
11.403372 14.454765 1.6107981
11.746618 14.278244 1.6176564
12.158963 14.072189 1.6270922
10.418922 14.977482 1.5962298
10.761375 14.78404 1.5998771
11.13063 14.575383 1.6045113
9.4276428 15.487844 1.5863111
9.7588634 15.327684 1.5897887
10.202521 15.101693 1.5945311
8.4332085 15.99183 1.5817288
8.7705698 15.837059 1.5839082
9.2118664 15.611081 1.5859021
7.4881392 16.493561 1.584752
7.7715411 16.36187 1.5848002
8.2171364 16.125475 1.5834534
8.5065403 16.007139 1.5859108
6.7902384 16.891195 1.5927725
7.2117677 16.66577 1.5887817
7.5153327 16.509638 1.5870161
6.2742023 17.172504 1.599563
6.5741897 17.011723 1.5956054
5.1357465 17.794073 1.6203305
15.975266 11.987819 2.4523449
16.256157 11.833356 2.4688997
16.640888 11.633994 2.4930899
14.990368 12.495064 2.3961515
15.245615 12.370741 2.4107311
15.70652 12.129656 2.4367197
13.995061 12.995913 2.3450098
14.278337 12.869685 2.3602719
14.729858 12.638669 2.3831608
15.019099 12.504526 2.3996015
13.291824 13.393018 2.3168969
13.718353 13.169448 2.3350096
14.02337 13.011681 2.3488598
12.316017 13.917048 2.2818859
12.770796 13.671408 2.2971542
13.076438 13.51755 2.309237
10.96108 14.498405 2.2316713
11.300883 14.438031 2.251281
11.73915 14.216669 2.2638555
12.098798 14.043444 2.2760174
10.382907 14.936508 2.2335687
10.764034 14.707819 2.2379296
11.137742 14.516987 2.2466452
9.3873386 15.441272 2.2188582
9.7415266 15.271326 2.2241788
10.151647 15.065166 2.2305679
8.3967457 15.949373 2.213192
8.7463827 15.776914 2.2150466
9.1554518 15.568417 2.2176669
7.4130845 16.470627 2.2177444
7.7476516 16.298201 2.2158499
8.1631374 16.076553 2.2138836
6.431531 16.990921 2.2306943
6.7539325 16.835094 2.2273123
7.199378 16.597706 2.2214668
6.2676601 17.103796 2.2366848
18.846228 10.483855 2.6479654
17.940323 10.941144 2.5801356
18.246017 10.790229 2.6027973
18.659216 10.573001 2.6333141
16.918705 11.481384 2.510551
17.242624 11.31889 2.5325975
17.654589 11.104622 2.5609045
16.815607 11.550476 2.5048809
12.979686 13.489969 2.9650173
13.273784 13.340252 2.9807451
13.567843 13.178124 2.9957352
12.275287 13.865763 2.9331563
12.72459 13.633342 2.9537842
13.001984 13.500445 2.9686568
10.915243 14.481856 2.8722601
11.31997 14.362299 2.8964813
11.751132 14.149887 2.9132807
12.015686 14.008887 2.9231474
10.300239 14.901536 2.8692076
10.721256 14.677255 2.8789091
11.038476 14.502372 2.886626
9.3186769 15.42242 2.8540063
9.7629185 15.185665 2.859477
10.08198 15.020872 2.8652825
8.3421307 15.931038 2.8482788
8.7530594 15.721539 2.8500838
9.0999336 15.547602 2.8533137
7.3775873 16.432171 2.8529143
7.7584944 16.227087 2.8488917
8.1096849 16.056263 2.849066
6.3945551 16.947958 2.8690386
6.7417641 16.773012 2.863265
7.1216459 16.568102 2.8563192
6.222681 17.053703 2.875252
18.770006 10.431548 3.4011495
17.807255 10.945163 3.3105881
18.249134 10.718251 3.3521106
18.59037 10.540026 3.3847437
16.883308 11.438971 3.2300425
17.277416 11.22689 3.2635441
17.626446 11.049573 3.2949691
15.898218 11.950827 3.1501479
16.269543 11.767651 3.1803322
16.633688 11.575057 3.2096629
14.916265 12.472208 3.0795624
15.239711 12.306032 3.1025057
15.68004 12.076063 3.1346698
13.922945 12.98593 3.0154839
14.252521 12.821243 3.036448
14.667512 12.609681 3.063633
13.767375 13.076447 3.0073967
9.2914724 15.393647 3.4951484
9.6947641 15.167686 3.4991748
8.3040867 15.905856 3.4878836
8.748991 15.680151 3.4903996
9.0779457 15.515528 3.4942112
7.335577 16.42235 3.4962304
7.7567754 16.201525 3.4917274
8.0870237 16.029213 3.4898515
6.9320235 16.613016 3.4991047
7.1380806 16.525076 3.4990368
16.817974 11.422242 3.951807
17.1542 11.240859 3.9865987
15.846709 11.935102 3.8562491
16.259781 11.718595 3.8959744
16.601341 11.549784 3.931139
14.890466 12.442286 3.7718945
15.236794 12.267047 3.8024142
15.616625 12.061446 3.8355715
13.926303 12.941016 3.6953647
14.227242 12.790375 3.7188871
14.658012 12.570918 3.7535753
12.923019 13.483938 3.6304026
13.24486 13.314189 3.6506138
13.644876 13.098668 3.6766689
11.930881 13.990745 3.5741081
12.288197 13.818196 3.5945396
12.703716 13.602491 3.6179357
10.924074 14.472631 3.524632
11.249502 14.359907 3.5459259
11.707128 14.128895 3.5667758
10.282743 14.885085 3.5167422
10.725026 14.636146 3.5271411
9.38556 15.369039 3.5004973
9.742281 15.17148 3.5048497
10.070656 15.011296 3.513711
7.3701701 16.432705 3.5008001
7.6411171 16.305878 3.500391
6.3520513 16.939966 3.5167387
6.7357044 16.752207 3.5098183
7.1090631 16.559074 3.5028934
6.2251077 17.068087 3.5314941
27.43165 5.831161 4.4418283
27.713247 5.6702962 4.4802999
21.325609 8.9995184 4.4992762
20.427822 9.4903641 4.3783665
20.72608 9.3373384 4.4187799
21.156887 9.1097517 4.4775519
19.487879 9.9933605 4.2570858
19.778822 9.849967 4.2950373
20.217499 9.6137333 4.3516283
18.820181 10.366958 4.1766477
19.222977 10.1489 4.2254381
19.508661 10.003531 4.26158
17.798653 10.899619 4.0569592
18.231825 10.678559 4.1071224
18.577019 10.51025 4.1488771
17.358242 11.144409 4.0096679
17.580364 11.020288 4.0331807
14.835997 12.395656 4.4634156
15.139955 12.23706 4.4943461
13.842519 12.929303 4.3730593
14.217759 12.736973 4.4070878
14.599655 12.546535 4.4442677
12.895831 13.432198 4.2989359
13.251184 13.241115 4.3250165
13.61074 13.057975 4.3545971
11.898117 13.949772 4.2329464
12.249352 13.781044 4.2569323
12.654819 13.566966 4.2833138
10.933261 14.42242 4.1783137
11.251328 14.298159 4.2005849
11.653373 14.101695 4.2235365
9.9276342 14.989568 4.1507959
10.254909 14.836187 4.1639581
10.672691 14.61705 4.178515
8.9850817 15.492722 4.1347742
9.2665453 15.355879 4.1408052
9.7018538 15.122616 4.1481729
7.994586 15.994443 4.1281891
8.2798414 15.871273 4.1329622
8.728034 15.637817 4.1346917
9.0099335 15.505107 4.1401267
7.2906795 16.392519 4.1420646
7.7299161 16.163637 4.1366057
8.0254164 16.013252 4.1352663
6.3480768 16.896235 4.1671052
6.7518806 16.682804 4.1551743
7.0786285 16.516685 4.1486387
6.2024293 17.019653 4.182086
28.982008 4.9890504 4.6578255
29.09584 4.8656621 4.6723332
28.287855 5.3659039 4.5602689
28.708841 5.1413221 4.6193929
27.895432 5.5789394 4.5056958
28.021048 5.5099602 4.5230985
24.336164 7.4213386 4.9455566
24.579582 7.2848458 4.9832191
23.38232 7.9302621 4.799365
23.755951 7.7260346 4.8558145
24.091776 7.553453 4.9077506
22.397579 8.4503145 4.6532202
22.738268 8.2781954 4.7037206
23.121813 8.0697813 4.7603087
21.440626 8.9446869 4.5157809
21.744564 8.7950087 4.5594292
22.144815 8.5863447 4.616787
21.344841 9.0126429 4.5037074
18.437294 10.485973 4.8968563
18.752764 10.32223 4.9420505
19.084425 10.145345 4.9898944
17.485031 10.989893 4.7678866
17.756422 10.855693 4.8049045
18.237749 10.59798 4.869895
16.493292 11.497323 4.6416397
16.819839 11.352709 4.6850233
17.227005 11.136008 4.7358723
17.50281 11.003344 4.7730117
15.795202 11.89618 4.5652599
16.193548 11.686685 4.6105919
16.525169 11.511972 4.6496119
15.324816 12.145301 4.5144539
15.57725 12.018179 4.5422325
12.798964 13.399952 4.9653177
13.117826 13.230105 4.9922132
11.848042 13.908086 4.8956294
12.263515 13.686236 4.9242511
12.582212 13.522629 4.9492769
10.849173 14.400095 4.8311219
11.261788 14.205752 4.8576298
11.598269 14.044029 4.8805203
9.8836842 14.93866 4.7996411
10.19839 14.778929 4.8115706
10.611438 14.557269 4.8269682
8.8961649 15.449395 4.7769761
9.2442608 15.27477 4.7842493
9.6468801 15.065838 4.7935905
7.9109654 15.969633 4.7753792
8.2640657 15.785475 4.7745318
8.6636801 15.576943 4.7760544
6.9241328 16.484331 4.7908459
7.2496352 16.318417 4.7847624
7.6637697 16.105312 4.779201
6.2979937 16.842806 4.8182988
6.7171588 16.609261 4.8007407
6.1896601 17.022129 4.8532453
26.987957 5.9938903 5.3737488
27.225595 5.8698959 5.4137492
27.636723 5.6476808 5.4830718
26.290096 6.3691854 5.2581434
26.710735 6.1466317 5.327775
27.013086 6.0018468 5.3788548
25.166021 6.9684334 5.07586
25.798578 6.637785 5.1780915
26.030039 6.5122752 5.215663
24.821821 7.160954 5.0216718
25.080462 7.0210514 5.0625749
22.206577 8.4649029 5.4866419
21.34008 8.9282827 5.3405929
21.738352 8.7187185 5.4073701
22.059998 8.5566864 5.4626708
20.415949 9.4277039 5.1916995
20.748453 9.2482738 5.244585
21.106665 9.0552082 5.3023901
19.439297 9.9416475 5.0407901
19.759163 9.7804842 5.0901022
20.156284 9.5708036 5.1514287
19.255915 10.063468 5.016109
17.310154 10.993542 5.4945865
16.418993 11.480043 5.3681908
16.724682 11.317105 5.4110579
17.178986 11.075574 5.4768867
15.468118 11.982815 5.2428393
15.783385 11.816315 5.283165
16.20192 11.600903 5.3395205
14.4919 12.495699 5.1272736
14.76833 12.358809 5.1601014
15.183844 12.138632 5.2089262
13.779654 12.871414 5.0526009
14.232794 12.634475 5.0996127
14.507596 12.504383 5.1319809
13.301469 13.140898 5.010179
13.523872 13.012778 5.0288033
28.929197 4.9394612 5.7046509
29.141632 4.7764664 5.7401743
27.926781 5.4865437 5.532186
28.25423 5.3146601 5.5884151
28.684509 5.0812402 5.6625271
27.819164 5.5539165 5.5142193
24.932331 6.9867954 5.9778204
25.022608 6.9590535 5.996182
23.982094 7.4956264 5.8008375
24.272032 7.362052 5.8557816
24.696613 7.137291 5.9350405
23.314878 7.8756151 5.6815138
23.776327 7.6261272 5.7646985
24.013706 7.5076642 5.8086286
22.385517 8.3708029 5.5176373
22.759212 8.1768312 5.5832705
23.076506 8.0140533 5.639761
20.235231 9.4308624 5.9819984
19.287317 9.943903 5.8144965
19.764 9.6874399 5.8977909
20.081478 9.5213833 5.9550219
18.379614 10.431643 5.6627712
18.732758 10.241111 5.7206655
19.120674 10.04102 5.7868781
17.437302 10.931832 5.5145988
17.765673 10.762466 5.5658188
18.09877 10.583263 5.6178365
17.335297 11.002374 5.5015435
26.89094 5.9455271 6.3582106
27.242765 5.7680688 6.4289751
27.578949 5.6009293 6.4970789
25.915323 6.4758101 6.1669965
26.215765 6.3164897 6.225646
26.650791 6.0806074 6.3109517
25.150574 6.8898377 6.0204067
25.729822 6.5814371 6.131474
22.898138 7.9948082 6.4987583
21.986515 8.4928312 6.3155065
22.271286 8.341404 6.3724737
22.705482 8.1056671 6.4600306
21.311621 8.853159 6.1836252
21.743277 8.6243992 6.2677393
20.402452 9.3448582 6.0130014
20.752003 9.1560612 6.0777617
21.017702 9.0093298 6.1272621
27.801687 5.4581118 6.5410614
28.010147 5.4294024 6.5870166
27.706507 5.5615134 6.5241532
23.891195 7.4521265 6.7058325
24.185354 7.3261204 6.7712574
22.953535 7.9733787 6.5108886
23.259102 7.8090749 6.5742183
23.664459 7.5811658 6.6583457
22.903961 8.0084763 6.5014381
