# .PCD v0.7 - Point Cloud Data file format
VERSION 0.7
FIELDS x y z
SIZE 4 4 4
TYPE F F F
COUNT 1 1 1
WIDTH 930
HEIGHT 1
VIEWPOINT 0 0 0 2.98023e-07 1 0 -0
POINTS 930
DATA ascii
10.466091 -21.226624 -2.9058938
10.564085 -21.134068 -2.9010875
10.744943 -20.752573 -2.8694406
10.915826 -20.331617 -2.8334773
11.071587 -20.110695 -2.8187673
11.190254 -19.795904 -2.792134
11.426986 -19.297699 -2.7537215
11.518779 -19.130653 -2.741888
11.69926 -18.719103 -2.7104571
11.898857 -18.295668 -2.6797581
12.017231 -18.079166 -2.6655197
12.17851 -17.747681 -2.6429214
12.416832 -17.257627 -2.6105011
12.5158 -17.081736 -2.6000974
12.676043 -16.744717 -2.5787516
12.897496 -16.296993 -2.5519006
13.016117 -16.076077 -2.5397754
13.179861 -15.749266 -2.5216334
13.354633 -15.41154 -2.5039232
9.9678154 -22.303556 -2.1373219
10.096377 -22.157259 -2.1302907
10.282863 -21.734848 -2.1036477
10.432324 -21.368565 -2.0804148
10.592456 -21.193838 -2.0729282
10.797463 -20.751909 -2.0466368
10.930163 -20.388296 -2.023917
11.105258 -20.157354 -2.0134826
11.194017 -19.956783 -2.0019069
13.433631 -15.239082 -2.4943633
13.530375 -15.084676 -2.4880621
13.655599 -14.826663 -2.4749947
16.943316 -8.5955782 -2.3327932
17.004221 -8.5100365 -2.3347299
16.990946 -8.478013 -2.3315167
17.131908 -8.2232094 -2.333375
17.364677 -7.7735682 -2.3360832
17.509838 -7.5169067 -2.339664
17.496408 -7.492465 -2.3369792
17.682955 -7.2279034 -2.3456483
17.906303 -6.8108163 -2.3523662
18.049145 -6.6037097 -2.3598723
18.090183 -6.4105263 -2.3565428
11.295773 -19.736073 -1.9895291
11.457046 -19.399612 -1.9711441
11.592782 -19.184572 -1.9611007
11.818542 -18.749813 -1.9391184
11.948688 -18.444468 -1.9227062
12.103107 -18.203863 -1.9125439
12.29901 -17.784895 -1.8918439
12.477365 -17.421223 -1.8747609
12.625467 -17.215998 -1.8678519
12.839862 -16.788305 -1.8491634
13.011571 -16.569262 -1.8431756
12.986957 -16.479549 -1.8356721
13.126585 -16.219202 -1.8255303
13.358745 -15.724318 -1.8051668
13.508725 -15.516859 -1.799926
13.491271 -15.483115 -1.7966994
13.645791 -15.233321 -1.7893288
13.858651 -14.80304 -1.7741294
14.011632 -14.575151 -1.7688369
13.994184 -14.490685 -1.7624508
14.076408 -14.462811 -1.7657042
16.904251 -9.0035648 -1.6756258
16.939236 -8.8839016 -1.6734535
17.068012 -8.6549234 -1.6742916
17.258272 -8.2627926 -1.6740979
17.415165 -7.9107451 -1.6734728
17.574827 -7.6628318 -1.6774188
17.780521 -7.2498198 -1.6799915
17.960951 -6.8021355 -1.6803464
18.050314 -6.6547165 -1.6831377
18.179264 -6.2493749 -1.6818928
18.389797 -5.7741642 -1.6863908
18.51449 -5.5741725 -1.6916296
18.692501 -5.2229724 -1.6980736
18.891453 -4.834362 -1.7060755
19.051632 -4.6033068 -1.7147844
19.22167 -4.2532077 -1.7224112
19.413288 -3.8592122 -1.7317026
19.557093 -3.6122286 -1.7399824
19.75275 -3.2319043 -1.7511876
19.938868 -2.8881948 -1.7626427
20.064064 -2.6511075 -1.7706548
20.254864 -2.2649972 -1.7831753
20.459757 -1.8592687 -1.7973861
20.560135 -1.6666547 -1.8046987
20.803663 -1.2446609 -1.8233809
21.00094 -1.0197692 -1.8395091
20.986555 -0.96985817 -1.8380448
21.089823 -0.72700906 -1.8462533
8.4178753 -25.306585 -1.3977166
8.5443497 -25.101603 -1.3896475
8.704073 -24.753311 -1.3751425
8.9056139 -24.360012 -1.3593017
9.0571518 -24.110395 -1.3497915
9.2619514 -23.723898 -1.3347296
9.4391899 -23.341698 -1.3195297
9.5472775 -23.152393 -1.3124888
9.7434397 -22.774515 -1.2982218
9.9523144 -22.348421 -1.2821243
10.090063 -22.13637 -1.2749615
10.282782 -21.751007 -1.2609046
10.45016 -21.396433 -1.2479419
10.600351 -21.152164 -1.2399626
10.798143 -20.747812 -1.2258115
10.951487 -20.400721 -1.2134742
11.106453 -20.165165 -1.2065146
11.288095 -19.792999 -1.194168
11.481749 -19.421146 -1.1823874
11.601208 -19.2029 -1.1757982
11.825361 -18.755924 -1.1620408
11.985569 -18.427795 -1.1520623
12.108803 -18.209869 -1.1460867
12.33029 -17.759481 -1.1330936
12.48237 -17.469673 -1.1252439
12.631166 -17.221815 -1.1193129
12.871576 -16.744267 -1.1068684
13.008316 -16.51148 -1.1016178
12.992792 -16.484245 -1.0999931
13.125528 -16.250011 -1.0947607
13.36708 -15.776423 -1.0837045
13.511165 -15.520484 -1.0784248
13.496808 -15.493138 -1.0768507
13.658496 -15.225161 -1.0719728
13.890262 -14.777653 -1.0629029
14.013659 -14.573053 -1.059567
14.053274 -14.479268 -1.057475
16.92288 -9.0569973 -1.0059203
16.946348 -8.8940859 -1.0030177
17.075569 -8.661437 -1.0034496
17.294899 -8.2400503 -1.0040402
17.455807 -7.8984566 -1.004123
17.5987 -7.6498327 -1.0056931
17.809175 -7.2364497 -1.0074787
17.963606 -6.8193016 -1.006997
18.103683 -6.6624947 -1.0110017
18.321777 -6.2533107 -1.0146238
18.451963 -5.9464741 -1.0160058
18.602661 -5.704463 -1.0197567
18.82856 -5.257421 -1.0245428
18.949022 -4.9385061 -1.0262513
19.113146 -4.6962008 -1.0314946
19.343197 -4.2709775 -1.0381836
19.505333 -4.0020957 -1.0435266
19.473518 -3.892046 -1.0407572
19.631222 -3.7210057 -1.0471735
19.839621 -3.2883739 -1.0539649
20.005236 -3.0112534 -1.0602415
19.992464 -2.9828424 -1.0593563
20.13707 -2.7283516 -1.0650048
20.36628 -2.2746227 -1.0740114
20.507912 -2.017731 -1.0799652
20.495087 -1.9916562 -1.0791619
20.642212 -1.7264472 -1.0856081
20.889509 -1.2633501 -1.0967946
21.015461 -1.0679076 -1.1027956
21.173098 -0.74308157 -1.1103456
21.382177 -0.25458658 -1.1206986
21.449524 0.069694333 -1.1241336
21.572021 0.29713842 -1.1306676
21.798735 0.75094199 -1.1431258
21.939526 1.0099703 -1.1510195
6.4868627 -29.06793 -0.51986307
6.5809059 -29.046761 -0.51986152
6.6925631 -28.748182 -0.51522201
6.8995566 -28.340422 -0.50913435
7.0502677 -28.10335 -0.50574893
7.1501126 -27.858774 -0.50203931
17.190596 -8.2548065 -0.99940741
17.379257 -7.752286 -0.99731398
7.2402711 -27.641737 -0.49876586
7.4053454 -27.303263 -0.49380159
7.522121 -27.124985 -0.49133685
7.6980963 -26.747158 -0.48582992
7.9058061 -26.362661 -0.48041037
8.0664835 -26.11871 -0.47715169
8.2332916 -25.769854 -0.47221789
8.4335012 -25.347006 -0.4662824
8.5660944 -25.156298 -0.46386567
8.7762022 -24.735092 -0.45812914
8.9455881 -24.389332 -0.45345074
9.072299 -24.161486 -0.45049307
9.2898302 -23.772352 -0.44551221
9.4456587 -23.392597 -0.44035167
9.5969572 -23.141254 -0.4372935
9.8035135 -22.753912 -0.43247139
9.9799099 -22.421791 -0.42839187
10.106458 -22.220341 -0.42609537
10.327854 -21.75515 -0.42036223
10.510105 -21.517126 -0.41799295
10.486801 -21.421938 -0.41632277
10.622603 -21.215313 -0.41414517
10.82616 -20.75725 -0.40864533
11.003944 -20.505079 -0.40619895
10.989954 -20.431252 -0.40494865
11.108646 -20.21104 -0.40256634
11.344129 -19.785198 -0.39809769
11.505115 -19.507147 -0.39530864
11.488539 -19.481501 -0.39477575
11.633303 -19.224072 -0.3922202
11.863384 -18.77207 -0.38762254
12.006504 -18.512032 -0.3851411
11.995413 -18.492012 -0.38474262
12.137513 -18.229221 -0.38227803
12.364972 -17.774284 -0.37794665
12.517957 -17.519196 -0.37583977
12.49476 -17.491169 -0.3752068
12.670245 -17.240665 -0.37347251
12.894571 -16.791473 -0.36955294
13.01333 -16.579887 -0.36790088
13.174398 -16.243731 -0.36507609
13.398339 -15.796935 -0.36156711
13.520199 -15.581196 -0.36008787
13.692623 -15.238803 -0.35760841
13.906782 -14.804088 -0.35454687
14.057615 -14.620122 -0.35402721
16.939184 -9.0663395 -0.33536181
17.005726 -9.1193466 -0.33682272
16.980463 -8.9183578 -0.33478892
17.10153 -8.7034073 -0.33495164
17.325855 -8.256917 -0.33502224
17.488731 -7.9272156 -0.33516312
17.620003 -7.6994724 -0.33564836
17.831715 -7.2613916 -0.33608299
17.988434 -6.9307709 -0.33648947
18.122555 -6.7021928 -0.33727881
18.360809 -6.2704391 -0.33867282
18.50622 -6.0130816 -0.33965114
18.492455 -5.9861627 -0.33927763
18.655634 -5.7048225 -0.34053189
18.878206 -5.2862983 -0.34220356
19.009766 -5.0712585 -0.34342188
18.996269 -4.9923015 -0.3428404
19.172775 -4.7428131 -0.34476018
19.386539 -4.2752566 -0.34653172
19.509281 -4.0655928 -0.34785199
19.49715 -3.995724 -0.34739736
19.670689 -3.7414291 -0.34951955
19.895227 -3.2935348 -0.35200691
20.016235 -3.0783596 -0.3534928
20.17659 -2.7451334 -0.35543802
20.400129 -2.2982888 -0.35834572
20.522011 -2.0836074 -0.36005557
20.678804 -1.7307694 -0.36222237
20.890934 -1.3324627 -0.36539844
21.058245 -1.0658821 -0.36804435
21.217083 -0.74806535 -0.37058485
21.397989 -0.34263355 -0.37355492
21.550102 -0.10559522 -0.37616554
21.722595 0.24616401 -0.37920231
21.914835 0.67379582 -0.38270968
22.058319 0.88724566 -0.3853437
21.993979 1.0833809 -0.38437179
22.166101 1.0745008 -0.3873654
7.2849884 -27.617685 0.49855787
7.4264483 -27.338982 0.49449834
7.5507903 -27.106031 0.49115294
7.7224145 -26.753672 0.48605618
7.9211144 -26.37627 0.48071384
8.0622196 -26.114532 0.47706032
8.2509499 -25.750486 0.47199181
8.4401312 -25.389545 0.46702299
8.5686255 -25.154535 0.46385086
8.7779226 -24.746241 0.45832205
8.9505892 -24.39888 0.45363733
9.0779533 -24.164171 0.45057157
9.2850761 -23.754732 0.44519472
9.4445982 -23.440989 0.44112805
9.6059179 -23.165089 0.43773779
9.8198366 -22.750515 0.43253022
9.9843693 -22.420284 0.42839989
10.105586 -22.208937 0.425908
10.324644 -21.779869 0.42072815
10.482654 -21.469654 0.41703764
10.629025 -21.205462 0.4140428
10.845245 -20.768698 0.40897501
11.00286 -20.506741 0.40621558
10.99251 -20.484413 0.40578663
11.131387 -20.223625 0.40295026
11.350447 -19.804701 0.39844763
11.51013 -19.516932 0.39549971
11.497439 -19.493488 0.39503518
11.642264 -19.233511 0.39244226
11.880733 -18.77854 0.38788018
12.016114 -18.526745 0.38544816
12.14265 -18.255003 0.38270167
12.385638 -17.783445 0.37828472
12.517354 -17.538088 0.37610239
12.676466 -17.245909 0.37361026
12.901691 -16.801117 0.36976218
13.023537 -16.582359 0.36804467
13.183756 -16.252356 0.3652958
13.393228 -15.833883 0.36199957
13.532808 -15.589628 0.3603428
13.701121 -15.251317 0.35787088
13.920464 -14.834062 0.35508808
14.05323 -14.604904 0.35378423
14.223722 -14.254608 0.35150757
14.433167 -13.844644 0.34910181
14.55661 -13.611042 0.34786147
14.751226 -13.250921 0.34612769
14.905333 -12.97707 0.34496373
16.914488 -9.1264286 0.33547959
16.986301 -8.9253407 0.33493561
17.108389 -8.7103138 0.33511245
17.338923 -8.2720833 0.33534226
17.500685 -8.001358 0.33588901
17.488035 -7.9791093 0.33552724
17.630131 -7.7213268 0.33596322
17.859341 -7.2696633 0.33658206
18.003212 -7.0064936 0.33720666
17.99295 -6.9847007 0.33690187
18.131479 -6.7231207 0.33755219
18.368538 -6.2773628 0.33883923
18.512335 -6.0214868 0.33979836
18.498568 -5.9927063 0.33941439
18.667301 -5.7021656 0.34071377
18.878441 -5.2994413 0.34226957
19.012886 -5.0747328 0.34348935
19.170361 -4.7396727 0.34470615
19.395473 -4.2944098 0.34675613
19.509953 -4.0715094 0.34788507
19.678082 -3.7466748 0.34966367
19.88796 -3.3302023 0.35198465
20.027927 -3.085454 0.35371345
20.186758 -2.7561486 0.35563949
20.412022 -2.3095124 0.35856977
20.536209 -2.0896432 0.36031255
20.712975 -1.7378272 0.36282748
20.923895 -1.3210431 0.36595878
21.054546 -1.1026421 0.36801451
21.224422 -0.75591028 0.37071776
21.433298 -0.34539786 0.37417182
21.554405 -0.11089973 0.37624159
21.72385 0.21920738 0.37921977
21.931847 0.61789954 0.3829757
22.057161 0.84366858 0.38529477
6.3015623 -29.543976 0.52729142
6.4199643 -29.332489 0.5241214
6.5454035 -29.097675 0.52059406
6.7164116 -28.749096 0.51533353
6.922668 -28.33613 0.50915664
7.0502367 -28.102436 0.50573206
7.1671529 -27.853958 0.50203151
7.3704472 -27.56414 1.4953283
7.4485025 -27.394524 1.4878128
7.573801 -27.160257 1.4777199
7.7803979 -26.75062 1.4600461
7.9420505 -26.439085 1.4467826
8.0867805 -26.189835 1.4364988
8.3147011 -25.737944 1.4175214
8.4777546 -25.420837 1.4043839
8.5920382 -25.213951 1.3960335
8.8246183 -24.755732 1.3773713
8.9857979 -24.426737 1.364023
9.1083679 -24.208948 1.3555765
9.327384 -23.778635 1.3386474
9.484149 -23.464931 1.3263934
9.629509 -23.219852 1.3174082
9.8477507 -22.781706 1.3007213
10.007657 -22.513983 1.2912257
9.9957542 -22.492119 1.2899241
10.139584 -22.230772 1.2805425
10.371305 -21.779329 1.2642303
10.511348 -21.527714 1.2555255
10.493302 -21.489704 1.2533205
10.654165 -21.22798 1.244785
10.883558 -20.782688 1.2295038
11.014496 -20.526634 1.2208463
11.172462 -20.24243 1.2117414
11.385023 -19.815413 1.1977003
11.516252 -19.576788 1.1903312
11.681328 -19.250406 1.1801074
11.905334 -18.801723 1.1663029
12.022602 -18.584778 1.1600256
12.187552 -18.260286 1.1505772
12.412537 -17.812027 1.1378013
12.565002 -17.565865 1.1318656
12.718412 -17.249208 1.1231838
12.927251 -16.840374 1.1126263
13.052083 -16.60614 1.106941
13.222988 -16.269777 1.098778
13.43407 -15.847047 1.0887858
13.559637 -15.613184 1.0837681
13.743985 -15.253278 1.0760715
13.939861 -14.885723 1.0688014
14.065921 -14.653591 1.0645194
14.277229 -14.245471 1.0570238
14.449607 -13.898562 1.050732
14.576103 -13.663568 1.0470628
14.78548 -13.255183 1.040706
14.955734 -12.900589 1.0351114
15.100044 -12.651862 1.0324426
15.317927 -12.249099 1.0279197
15.475143 -11.91606 1.0235943
15.598294 -11.698589 1.021862
15.825383 -11.256887 1.017825
15.984146 -10.921452 1.0145628
16.102779 -10.703725 1.0133669
16.326328 -10.257784 1.0105281
16.487457 -9.9280796 1.0086324
16.627195 -9.704752 1.0089908
16.8617 -9.2706318 1.008467
17.005854 -9.0117579 1.0086433
16.99543 -8.9917698 1.0076708
17.140749 -8.7307816 1.0081542
17.368824 -8.2919645 1.0087005
17.511116 -8.0223799 1.0094407
17.646202 -7.7361093 1.0097928
17.883568 -7.268939 1.0117273
18.013681 -7.0265393 1.013335
17.999689 -6.9960799 1.0120727
18.178761 -6.7225294 1.0157965
18.400503 -6.2986164 1.0192872
18.516321 -6.0790434 1.0213597
18.680286 -5.7498102 1.0243521
18.908722 -5.3064876 1.0292772
19.024103 -5.084434 1.0320063
19.199482 -4.7487373 1.0365534
19.418365 -4.315763 1.0425169
19.559359 -4.0609779 1.0469294
19.718395 -3.7493892 1.0519454
19.929531 -3.3418598 1.0590584
20.053627 -3.106441 1.0635102
20.22747 -2.7585132 1.0699207
20.422001 -2.3790948 1.0775177
20.562679 -2.1140645 1.0833364
20.734257 -1.7582479 1.0905681
20.939295 -1.3833636 1.0997787
21.066975 -1.1529163 1.105736
21.2747 -0.74440777 1.115669
21.450142 -0.39250761 1.124351
21.572763 -0.16202678 1.130622
21.782429 0.24792425 1.1416676
21.939133 0.56188363 1.1501623
22.099415 0.85485125 1.1590601
22.186913 1.0085461 1.1639686
6.4549756 -29.358042 1.5753444
6.5679612 -29.156456 1.5663184
6.7743645 -28.743515 1.5476651
6.9458041 -28.391048 1.531796
7.0722356 -28.162127 1.5217448
7.2474508 -27.803608 1.5058198
11.487985 -19.671061 1.9929872
11.561533 -19.612757 1.9918646
11.765204 -19.243824 1.973385
11.925504 -18.881725 1.9538429
12.094425 -18.650389 1.9447737
12.251067 -18.250616 1.9231517
12.43567 -17.863176 1.9042511
12.615614 -17.654854 1.8984406
12.791656 -17.261864 1.8797289
12.953197 -16.888062 1.8620974
13.085737 -16.677008 1.8546265
13.299701 -16.250412 1.8372177
13.452381 -15.893505 1.8217337
13.592377 -15.685008 1.8158679
13.815075 -15.260951 1.8010131
14.005957 -15.006512 1.7958883
13.960224 -14.901159 1.7864386
14.115937 -14.729323 1.7849145
14.337818 -14.270534 1.7698725
14.508967 -14.015817 1.7649161
14.487602 -13.927033 1.7581863
14.634713 -13.718998 1.7550184
14.84773 -13.273715 1.7424785
15.044308 -13.050992 1.7424593
14.989384 -12.929615 1.7318742
15.16824 -12.717095 1.7318006
15.369397 -12.268815 1.7205726
15.510661 -12.119003 1.7221152
15.487617 -11.977178 1.7128999
15.660567 -11.706763 1.7106781
15.88434 -11.244748 1.7027168
16.007343 -11.015284 1.7000101
15.992899 -10.984447 1.6974399
16.128229 -10.765578 1.6965585
16.36972 -10.278652 1.6911305
16.511723 -10.023848 1.6899459
16.492693 -9.9873056 1.6868654
16.686777 -9.7182398 1.6894907
16.901226 -9.3002796 1.6877935
17.043108 -9.101346 1.690387
16.994331 -8.9790554 1.6815829
17.199835 -8.7496605 1.6883621
17.410049 -8.3175554 1.6881232
17.553648 -8.1448746 1.6930341
17.707077 -7.7704391 1.69182
17.915823 -7.3509021 1.6942635
18.053362 -7.129303 1.6981915
18.236761 -6.7511673 1.7013847
18.421381 -6.3674407 1.7052547
18.562202 -6.1513553 1.7108655
18.766438 -5.7427783 1.71706
18.939556 -5.39115 1.7228353
19.090694 -5.1910672 1.7309055
19.271133 -4.7847633 1.7372468
19.447866 -4.3883624 1.7442635
19.581446 -4.1760597 1.7517236
19.797186 -3.748477 1.7628518
19.955126 -3.4004114 1.7710242
20.09313 -3.1870456 1.7799337
20.329973 -2.7272995 1.7946186
20.465664 -2.4005458 1.8028017
20.600628 -2.2024899 1.812637
20.802282 -1.7517842 1.8264486
20.973904 -1.4186015 1.8391738
21.134851 -1.1787835 1.8519675
21.340803 -0.77732021 1.8683585
21.515099 -0.57942605 1.8830112
21.490971 -0.43287945 1.8806024
21.63975 -0.19629002 1.8933411
21.841093 0.18772799 1.9109591
22.008486 0.48072863 1.9259526
21.993435 0.56419343 1.9248133
22.156496 0.76401454 1.9396259
7.4069462 -27.577858 2.4982617
7.4852676 -27.428701 2.4874558
7.6232758 -27.203844 2.4717262
7.8405528 -26.7703 2.4405036
8.0245829 -26.507444 2.4230397
8.1721115 -26.199417 2.4010944
8.3630781 -25.763865 2.369844
8.5198183 -25.565899 2.3576617
8.655055 -25.258095 2.3359518
8.8736801 -24.80134 2.3045588
9.0192709 -24.642572 2.2958136
8.9995594 -24.499666 2.2834804
9.1824074 -24.256798 2.2691896
9.3948689 -23.802431 2.2388036
9.5655804 -23.582991 2.2265134
9.4992695 -23.452572 2.2137558
9.7173929 -23.236147 2.203548
9.9288435 -22.794825 2.1752799
10.044774 -22.669561 2.1693158
10.225952 -22.246897 2.1421514
10.431716 -21.824411 2.1163089
10.551293 -21.677814 2.1093018
10.750396 -21.233015 2.082212
10.906569 -20.841703 2.0580063
11.068459 -20.618593 2.0473897
11.253181 -20.240639 2.0261564
11.421604 -19.880598 2.005944
11.513968 -19.790205 2.003135
14.136805 -14.621785 2.4972405
14.34031 -14.274655 2.4844658
14.509893 -14.023643 2.4776926
14.485277 -13.934065 2.4678822
14.636684 -13.716653 2.4630151
14.840164 -13.292233 2.4462473
15.012 -13.023875 2.4402356
14.994069 -12.939781 2.4318199
15.163461 -12.736361 2.4315248
15.376698 -12.283696 2.4165397
15.507122 -12.068705 2.4127173
15.491036 -11.979631 2.4044571
15.663654 -11.706454 2.4010983
15.873955 -11.284413 2.3914227
16.007473 -11.014304 2.3858016
15.993297 -10.984832 2.3823111
16.141697 -10.731675 2.380044
16.376671 -10.284659 2.3744926
16.50853 -10.066442 2.3741186
16.493889 -9.9929895 2.3678908
16.688425 -9.7344294 2.372257
16.903763 -9.3118324 2.3696499
17.044125 -9.0962954 2.3721499
17.200907 -8.7518091 2.3697326
17.401354 -8.3473139 2.3697462
17.549477 -8.1051159 2.3735111
17.718075 -7.7488899 2.3745184
17.921907 -7.335834 2.3777509
18.048809 -7.1024513 2.3815315
18.248587 -6.7345772 2.3884327
18.444477 -6.3493314 2.39516
18.563 -6.1326342 2.4004548
18.739313 -5.7944365 2.4084601
18.946985 -5.3902798 2.4187255
19.096403 -5.1497078 2.4285367
19.298918 -4.75213 2.4404542
19.5019 -4.5059533 2.4576173
19.441864 -4.3919544 2.4473102
19.576283 -4.1626477 2.4574118
19.796515 -3.7418928 2.4738054
19.957397 -3.4005847 2.4857879
20.073404 -3.2080524 2.4960132
20.135088 -2.9984319 2.4995403
6.8985968 -28.66515 2.5794871
6.9801764 -28.440996 2.5621071
7.1349683 -28.207573 2.5455804
7.3311839 -27.788994 2.5144234
10.303491 -22.087698 2.9925919
10.418954 -21.85318 2.972636
10.579187 -21.681627 2.9621832
10.741065 -21.262722 2.9249911
10.919873 -20.871298 2.8922591
11.075579 -20.615231 2.8734365
11.249578 -20.250795 2.8444502
11.439198 -19.852844 2.8133459
11.573818 -19.656162 2.8007808
11.758945 -19.268244 2.771662
11.930532 -18.88806 2.7430596
12.078497 -18.665373 2.7298372
12.265743 -18.248318 2.6997857
12.439697 -17.890226 2.6754875
12.606508 -17.655663 2.6637633
12.80207 -17.256634 2.6383119
13.001032 -17.004644 2.6282341
12.95587 -16.89929 2.6146166
13.097152 -16.668779 2.6029062
13.303593 -16.254976 2.5791693
13.481832 -15.871502 2.5569551
13.595551 -15.697792 2.5499117
13.829763 -15.26055 2.5287912
14.005998 -15.016972 2.5213547
13.985525 -14.927843 2.5116491
14.123274 -14.727153 2.5054328
20.15056 -3.0999572 2.5032997
20.306395 -2.760793 2.5163176
20.454062 -2.4446661 2.5293305
20.59893 -2.2019758 2.5437102
20.805775 -1.7611705 2.5638459
20.982533 -1.4250633 2.5822959
21.129141 -1.1887752 2.5984685
21.345093 -0.7945295 2.622721
21.508127 -0.51312637 2.6416175
21.48897 -0.47377315 2.6391354
21.630613 -0.22405563 2.6560974
21.887367 0.26114908 2.68768
22.013508 0.47539163 2.7035344
21.987679 0.51097524 2.7004762
22.13143 0.71001548 2.7188182
7.4857349 -27.50308 3.4998062
7.4907799 -27.4779 3.4969823
7.6353183 -27.225979 3.4719222
7.8656201 -26.778059 3.4268727
8.0186262 -26.596794 3.4108651
7.9957871 -26.448284 3.3925986
8.1672535 -26.248627 3.3753617
8.3958979 -25.78483 3.3296058
8.5264368 -25.601862 3.3132603
8.4931221 -25.457071 3.2951033
8.6859531 -25.269665 3.2809355
8.8893156 -24.819326 3.2370009
9.0792732 -24.568161 3.2159822
9.1849899 -24.28158 3.1876171
9.391118 -23.834522 3.1455114
9.5605268 -23.56102 3.1220443
9.7134581 -23.240112 3.0927753
9.9320116 -22.795469 3.0530739
10.037359 -22.628653 3.0395253
10.208621 -22.321348 3.0137765
12.281043 -18.244257 3.4833648
12.433963 -17.937593 3.4568624
12.58406 -17.668329 3.4356539
12.811191 -17.241205 3.4021437
12.973388 -16.914484 3.376267
13.09384 -16.696157 3.3606961
13.317319 -16.248331 3.3275113
13.483649 -15.904312 3.3024485
13.592656 -15.719816 3.2915432
13.826306 -15.257463 3.2612603
13.987648 -14.929298 3.2402658
14.115031 -14.716987 3.229815
14.35311 -14.251365 3.2036507
14.503163 -14.004562 3.1932027
14.488716 -13.972686 3.188051
14.632477 -13.710539 3.1760278
14.860036 -13.269258 3.1554375
15.004435 -13.009645 3.1453733
14.994864 -12.991198 3.1423125
15.139387 -12.729685 3.1329134
15.364869 -12.28827 3.1161997
15.512418 -12.021441 3.1083388
15.494677 -11.992935 3.1033468
15.652005 -11.740585 3.0989969
15.873332 -11.281567 3.0844572
16.014263 -11.023751 3.0792589
16.176226 -10.720302 3.0737259
16.392618 -10.291357 3.0656662
16.509916 -10.071568 3.0630703
16.677454 -9.7461567 3.0595381
16.902719 -9.3019972 3.0558345
17.025126 -9.0839739 3.0563507
17.187263 -8.7649574 3.0558586
17.418251 -8.3333693 3.0583029
17.546759 -8.0997095 3.0609725
17.718695 -7.7494612 3.0631418
17.926998 -7.3417802 3.0682831
18.052963 -7.1040206 3.0727603
18.227816 -6.7596679 3.0792363
18.423023 -6.379725 3.0879414
18.58462 -6.1067572 3.0983689
18.761585 -5.7654018 3.1088018
18.941807 -5.3897829 3.1192083
19.073212 -5.1604095 3.1295545
19.280256 -4.7493696 3.1450784
19.450882 -4.3979216 3.1585121
19.576794 -4.1808381 3.170619
19.804636 -3.7421303 3.1923456
19.969196 -3.4132037 3.208694
20.109066 -3.1668897 3.2242692
20.319775 -2.7527859 3.2478242
20.485771 -2.4207654 3.2672119
20.602798 -2.2052772 3.2818713
20.811386 -1.779079 3.3083022
20.980061 -1.4673941 3.3310354
21.128998 -1.2070746 3.3520312
21.367607 -0.74659282 3.3864307
21.504908 -0.50679147 3.4069891
21.491737 -0.48358089 3.4048107
21.636282 -0.22692792 3.427104
21.868845 0.22255309 3.463922
22.00997 0.47959161 3.4868724
22.056343 0.58817184 3.4946389
7.1422362 -28.211504 3.5732427
7.3599524 -27.7684 3.5272684
7.5057802 -27.572338 3.5086558
7.5296679 -27.495544 3.5003312
9.7221136 -23.17494 3.9804814
9.9217768 -22.836332 3.9435699
10.051968 -22.601528 3.9178162
10.202354 -22.286972 3.8822486
10.431174 -21.844172 3.8340237
10.574224 -21.582153 3.80653
10.746116 -21.235451 3.7695355
10.945929 -20.842085 3.7286446
11.078754 -20.599539 3.7045825
11.275885 -20.220324 3.6669512
11.441859 -19.888117 3.6340871
11.5776 -19.638277 3.6107132
11.776257 -19.244724 3.5735214
11.950518 -18.897638 3.5413766
12.073932 -18.662092 3.5204909
12.188683 -18.449425 3.5022163
13.969418 -15.083754 3.9962306
14.032408 -15.021362 3.9956837
14.184564 -14.745276 3.9771886
14.407998 -14.314648 3.9479637
14.545769 -14.104029 3.9383521
14.715342 -13.712221 3.9098413
14.906867 -13.344418 3.8890831
15.066931 -13.109512 3.8821406
15.231794 -12.751364 3.8614314
15.441524 -12.306157 3.8382211
15.562815 -12.113057 3.8334553
15.730361 -11.726465 3.813961
15.923818 -11.320434 3.7977974
16.038815 -11.126497 3.7944095
16.219427 -10.750391 3.7825196
16.427275 -10.339789 3.7730725
16.556068 -10.10869 3.7706654
16.753765 -9.7543907 3.7685001
16.94059 -9.3528214 3.7614946
17.093784 -9.1498604 3.7688258
17.29151 -8.7373953 3.7659876
17.449223 -8.3929024 3.7637763
17.59111 -8.1930943 3.7721367
17.799086 -7.7496853 3.7736337
17.954056 -7.39852 3.7746491
18.090696 -7.1824665 3.783582
18.326475 -6.7697663 3.7976913
18.509171 -6.5162921 3.8142719
18.473133 -6.4206276 3.8015389
18.617107 -6.2100983 3.8149235
18.838507 -5.7714934 3.8299484
19.013231 -5.5282435 3.8488643
18.989796 -5.4333854 3.8393703
19.152048 -5.2011752 3.8577223
19.349825 -4.7985768 3.8752449
19.505795 -4.5169759 3.8918755
19.491821 -4.4294424 3.8854337
19.618147 -4.2417698 3.901576
19.870693 -3.7771106 3.9317143
20.01256 -3.5723343 3.9515412
19.988897 -3.4863057 3.9440992
20.154932 -3.2271585 3.9677429
20.343901 -2.8236539 3.9924278
22.148426 0.7470938 3.5099862
9.3980188 -23.786938 4.0509005
9.5140362 -23.575294 4.0265551
9.5973015 -23.407351 4.0068836
11.622503 -19.57148 4.4245634
11.78514 -19.275862 4.3917332
11.97346 -18.918324 4.3519773
12.143176 -18.712482 4.336154
12.327141 -18.286877 4.2868948
12.509273 -18.007427 4.2619824
12.485102 -17.981157 4.2551107
12.6654 -17.740709 4.2371473
12.854748 -17.310457 4.1912031
13.010899 -17.124245 4.1804214
12.990885 -16.977547 4.1553769
13.156171 -16.723717 4.1361823
13.371913 -16.292934 4.0971384
13.509041 -16.069721 4.0807405
13.492083 -15.98766 4.0664158
13.660233 -15.742658 4.0515847
13.900531 -15.299147 4.0180969
14.042759 -15.104543 4.0089197
14.1454 -14.950352 4.0006938
16.090218 -11.00071 4.4999208
16.248713 -10.732128 4.4958839
16.43305 -10.388135 4.4883838
16.595875 -10.140479 4.4901686
16.800695 -9.7509985 4.484838
17.004303 -9.5099936 4.4979997
16.935633 -9.4347382 4.4756913
17.113367 -9.2100801 4.4868679
17.326719 -8.7630196 4.48281
17.514336 -8.5326385 4.4978309
17.46629 -8.4109592 4.4755764
17.618374 -8.2115526 4.487721
17.819412 -7.7608514 4.4873066
17.953735 -7.4003768 4.4832964
18.082506 -7.2344279 4.4964767
18.158455 -6.9922037 4.4922724
20.418095 -2.7522664 4.0048289
20.515999 -2.5754375 4.0192075
20.493113 -2.49365 4.0128407
20.64996 -2.2526917 4.0378432
20.875534 -1.7834587 4.0726404
21.049793 -1.5445528 4.102675
21.179846 -1.2593552 4.1243343
21.407396 -0.81420165 4.1642556
21.526823 -0.63555896 4.186245
21.68232 -0.26446733 4.2150192
21.909178 0.18297267 4.2589297
22.059647 0.41656175 4.288753
22.174759 0.64426774 4.3121824
13.797254 -15.561336 4.8013864
13.870457 -15.279714 4.7643819
14.014915 -15.027026 4.7439222
13.996504 -14.993666 4.7353997
14.20173 -14.716438 4.7217417
14.423428 -14.293373 4.6881919
14.602489 -14.136996 4.6923456
14.749847 -13.760016 4.6571755
14.912326 -13.342713 4.6197596
15.070943 -13.206419 4.626338
15.309673 -12.72739 4.5964932
15.455317 -12.338943 4.5658536
15.590074 -12.183253 4.5680323
15.788359 -11.754837 4.5444899
15.94019 -11.349559 4.5176525
16.070951 -11.158063 4.5169406
16.279453 -10.765014 4.5059853
16.474255 -10.426793 4.5011663
16.639011 -10.204005 4.506392
16.8887 -9.790576 4.5069971
17.013073 -9.5511951 4.5044198
17.099735 -9.3948307 4.5044198
17.414486 -8.7966871 4.5043297
17.552299 -8.5153675 4.5039701
17.691328 -8.243907 4.5061736
17.902456 -7.7930412 4.5078588
18.021051 -7.6322498 4.5182629
17.998852 -7.4973593 4.5014505
18.145086 -7.2467256 4.5109744
18.382336 -6.770153 4.5226717
18.536562 -6.5870218 4.5416908
18.48345 -6.4616961 4.5204949
18.665529 -6.2254362 4.5427523
18.879112 -5.8005662 4.5598059
19.066189 -5.5816674 4.5865269
18.997671 -5.4908371 4.5654774
19.184931 -5.2459731 4.5919046
19.383137 -4.7804399 4.6091723
19.551527 -4.6064358 4.637465
19.464401 -4.4727592 4.6108317
19.701315 -4.2435651 4.6528687
19.893976 -3.8214505 4.6769357
20.047352 -3.6282885 4.7035217
20.18873 -3.2748978 4.7219739
20.410271 -2.7815907 4.7557192
20.564871 -2.688215 4.7882276
20.715593 -2.279238 4.8115211
20.912554 -1.8241489 4.8464217
21.091623 -1.5940984 4.8832998
21.228868 -1.2977237 4.9103422
21.502415 -1.0027448 4.9696188
21.383842 -0.91998839 4.9414287
21.552277 -0.7027486 4.9784956
21.614176 -0.48073801 4.9912615
16.310015 -10.639184 5.2178903
16.418934 -10.345167 5.1999559
16.538923 -10.133763 5.1973691
16.723537 -9.7548828 5.1878586
16.932692 -9.345355 5.1823316
17.062284 -9.1164007 5.1835337
17.279152 -8.7483025 5.1897173
17.457178 -8.406065 5.1917253
17.585066 -8.1802797 5.1968517
17.790644 -7.760632 5.2009649
17.94935 -7.4054127 5.2028155
18.095745 -7.1965265 5.2182322
18.322887 -6.7537932 5.2326875
18.484196 -6.4216862 5.2432141
18.617126 -6.1950192 5.2575064
18.852236 -5.7369599 5.2803507
19.005411 -5.5062981 5.3019085
18.989586 -5.4316845 5.2923169
19.104729 -5.2483273 5.3088708
19.357985 -4.7687111 5.342155
19.504587 -4.5060625 5.3638959
19.488245 -4.479629 5.3580341
19.655033 -4.198863 5.3855233
19.848276 -3.8038847 5.415246
20.012558 -3.525363 5.4449043
19.995714 -3.4898117 5.4388237
20.163555 -3.2230976 5.4715252
20.305681 -2.9331353 5.497364
21.689072 -0.52777135 5.0088062
21.792562 -0.23491959 5.0316005
21.927559 0.10319071 5.0624595
22.083506 0.27944726 5.0988455
22.214102 0.58469027 5.130311
20.309029 -3.0025983 5.5009398
20.404095 -2.7512825 5.516818
20.515011 -2.5753078 5.5401163
20.694834 -2.2071376 5.5767779
20.887232 -1.8161691 5.6179538
21.025909 -1.5869279 5.6499248
21.206095 -1.2285228 5.6917987
21.409986 -0.8184182 5.7410774
21.544895 -0.59983498 5.7752113
21.704775 -0.27351302 5.8163476
21.928823 0.1594003 5.8760152
22.031059 0.33673906 5.903913
