# .PCD v0.7 - Point Cloud Data file format
VERSION 0.7
FIELDS x y z
SIZE 4 4 4
TYPE F F F
COUNT 1 1 1
WIDTH 657
HEIGHT 1
VIEWPOINT 0 0 0 2.98023e-07 1 0 -0
POINTS 657
DATA ascii
20.947098 7.9465814 -1.1741364
21.10235 7.8269877 -1.1795533
20.423922 8.4236612 -1.1578426
20.724623 8.1570292 -1.1672564
19.863058 8.9092875 -1.1409111
20.157593 8.6707125 -1.1500194
19.641092 9.0327139 -1.132984
21.426483 7.483427 -0.39615527
21.735062 7.2463055 -0.39992344
20.937479 7.9363542 -0.39083934
21.222523 7.7094908 -0.39413589
21.520456 7.5139165 -0.3978796
20.414118 8.4146881 -0.38541532
20.693762 8.1916122 -0.38849077
19.898888 8.8991919 -0.38049117
20.160088 8.6601934 -0.38299656
19.349703 9.4024448 -0.37551776
19.655312 9.1549244 -0.37848005
18.779112 9.815794 -0.36987635
19.152948 9.5637636 -0.37368038
17.98893 10.490109 -0.36348653
18.242012 10.267488 -0.36539879
18.530346 10.026618 -0.36776251
17.471582 10.973869 -0.36013412
17.748297 10.71772 -0.36191583
18.0049 10.504979 -0.36385798
16.946863 11.447288 -0.35697129
17.208632 11.209118 -0.35849142
16.442125 11.942838 -0.35471937
16.700171 11.700062 -0.35593531
15.934157 12.436105 -0.35281563
16.198372 12.196654 -0.35394356
15.384565 12.934899 -0.35084417
15.705999 12.655341 -0.35208374
14.990174 13.492592 -0.35203689
15.150021 13.224463 -0.35103038
14.358598 13.981683 -0.34982526
14.747436 13.747816 -0.35193536
15.012327 13.511417 -0.35254434
13.8519 14.352938 -0.34818411
14.190086 14.09234 -0.34909046
14.52254 14.038957 -0.35257351
13.345119 14.831918 -0.34827042
13.601212 14.600446 -0.3483049
13.156849 15.051459 -0.34895003
21.407827 7.4059 0.39540711
21.68399 7.184494 0.39873376
20.891634 7.8920283 0.38981953
21.155649 7.6564722 0.39271867
20.376369 8.377121 0.38455942
20.661024 8.1229773 0.38751441
19.851452 8.8518257 0.37940103
20.117496 8.6166172 0.38201085
19.33906 9.3390493 0.37487045
19.601688 9.1007633 0.37722981
18.778849 9.8462019 0.37011969
19.074526 9.5745249 0.37253901
18.297983 10.297272 0.36650512
18.556833 10.055351 0.36840978
17.792397 10.774792 0.36308786
18.052286 10.549426 0.36496517
16.991064 11.489707 0.35802445
17.242914 11.268384 0.35955849
17.519058 11.020357 0.36126673
16.475235 11.971735 0.355481
16.753885 11.728554 0.35698846
17.004698 11.505896 0.35837987
15.950791 12.452946 0.35322562
16.217512 12.217543 0.35442981
15.439193 12.938254 0.35161081
15.704433 12.70415 0.35259798
14.947346 13.447642 0.35095784
15.197227 13.198059 0.35135177
14.391052 13.945013 0.34978691
14.725021 13.664363 0.3506535
13.891087 14.391132 0.34913552
14.152471 14.151919 0.34935826
13.354488 14.855783 0.34868822
13.654553 14.602529 0.34896895
12.924439 15.300343 0.34960118
13.105208 15.10571 0.34907448
8.2282314 19.482605 0.36915523
7.850028 19.851517 0.37262428
8.1167507 19.616505 0.37056535
7.3391538 20.338135 0.3774156
7.5992451 20.098232 0.3750585
6.7803841 20.841122 0.38255912
7.1092982 20.559277 0.37971556
6.2987442 21.298761 0.38769665
6.5625396 21.062376 0.38507879
5.4924774 21.994371 0.39570275
5.768393 21.778719 0.3932671
6.0513139 21.549395 0.39069584
4.9884324 22.491629 0.40213355
5.2460189 22.262667 0.39924723
5.5157466 22.013624 0.39612812
4.4776721 22.981272 0.40868267
4.7425876 22.742594 0.40552199
5.0096884 22.505697 0.4024533
3.9499829 23.452049 0.41512406
4.2173858 23.217022 0.41189477
4.5007529 23.004282 0.40915421
3.465126 23.966927 0.42269322
3.707413 23.707453 0.41885152
3.2381587 24.205597 0.42627954
27.354147 1.8539987 1.436869
27.613327 1.6125451 1.4496239
26.839275 2.3270078 1.4118733
27.100767 2.0996754 1.4245524
26.285267 2.8223677 1.385484
26.575123 2.5600257 1.3991945
25.781761 3.2995019 1.362203
26.054054 3.0518286 1.3747715
24.999426 3.9863605 1.3267165
25.274725 3.775516 1.3393102
25.573393 3.5192361 1.3528774
24.863901 4.1561747 1.3211461
25.02058 4.0170574 1.3280675
22.941477 5.9406109 1.2419715
23.151939 5.7549429 1.2502786
22.431641 6.4318299 1.2229679
22.703733 6.185626 1.2332488
21.870771 6.9352493 1.2024497
22.171515 6.6717944 1.213446
21.391724 7.3921928 1.18615
21.666849 7.1393709 1.195583
20.847334 7.8754001 1.1679363
21.158957 7.6069837 1.1783932
20.349813 8.3490419 1.1527772
20.607515 8.1084261 1.1605983
19.832132 8.8322096 1.1377919
20.098913 8.5995684 1.1457155
19.275642 9.3429203 1.1226292
19.576212 9.0738726 1.130802
18.800016 9.7812099 1.1106708
19.053461 9.5523996 1.1170177
18.295126 10.265727 1.0994618
18.52957 10.031772 1.1042775
17.489265 10.990814 1.0825367
17.753281 10.753358 1.0878149
18.018814 10.520381 1.0934978
16.969778 11.47035 1.0734595
17.254972 11.217808 1.078638
17.504831 11.00399 1.083596
16.445089 11.945706 1.0652393
16.703011 11.72177 1.0694534
15.938525 12.43875 1.0595754
16.199389 12.19926 1.0628206
15.405545 12.906802 1.0532862
15.717133 12.657553 1.0576302
14.926013 13.427394 1.0521879
15.172961 13.161714 1.0526917
14.394249 13.892559 1.0484266
14.655633 13.669307 1.0503237
13.857315 14.357978 1.0457866
14.135771 14.135377 1.0476804
13.341806 14.842009 1.045936
13.604314 14.604159 1.0460175
12.911392 15.274429 1.048177
13.093587 15.09146 1.0471121
8.3075762 19.48011 1.1098719
7.8863144 19.898542 1.1217654
8.1885881 19.676186 1.1169482
7.3757501 20.375677 1.1356605
7.6764116 20.157749 1.1304585
6.8532581 20.852222 1.1503434
7.1616802 20.620752 1.1440209
6.3439126 21.343992 1.166971
6.6053371 21.104576 1.1589608
5.8159046 21.810854 1.1830214
6.091886 21.589285 1.1756376
5.3040709 22.2882 1.2007167
5.6032324 22.050131 1.192333
4.7894998 22.782389 1.2200942
5.0735235 22.520683 1.2098405
3.9873238 23.485945 1.2484581
4.2826509 23.273823 1.2402318
4.5741982 23.058746 1.232005
3.4650993 23.897148 1.2654948
3.7477458 23.747501 1.2599801
4.0651426 23.518417 1.2508268
2.9893312 24.385494 1.2875552
3.2176898 24.241699 1.2816209
3.5114758 24.016291 1.2720231
21.752501 6.9923406 1.9990041
21.383831 7.3960423 1.9795921
21.623875 7.1630774 1.9929543
20.850252 7.8526425 1.9492711
21.137106 7.6205931 1.9657929
20.340935 8.3226995 1.9228297
20.623634 8.1200428 1.939178
19.813799 8.8317375 1.8979278
20.100264 8.5994081 1.9127373
19.310776 9.3087769 1.8755726
19.598026 9.0484085 1.8885403
18.489326 9.9923124 1.8387233
18.772068 9.7581549 1.8510391
19.059793 9.5587349 1.8654714
17.931181 10.48946 1.8174849
18.270699 10.271987 1.8338434
18.509615 10.105742 1.8450353
17.473711 10.979699 1.8055061
17.762093 10.745759 1.8162898
18.058121 10.551559 1.8298193
16.944609 11.445831 1.7889868
17.23584 11.221738 1.7994293
17.51156 11.010049 1.8097171
16.44438 11.941478 1.7780091
16.703793 11.702693 1.7844158
17.003748 11.503749 1.7961055
15.908391 12.41019 1.7652293
16.195927 12.211623 1.7746592
15.408237 12.906811 1.7584993
15.684846 12.691854 1.7652783
14.854621 13.390966 1.7497525
15.171618 13.189011 1.758828
14.36411 13.862776 1.7465303
14.669396 13.632163 1.7520672
13.86158 14.362218 1.7463357
14.143244 14.141994 1.7498624
13.338581 14.838202 1.7456203
13.602468 14.602231 1.7459606
12.805928 15.303439 1.7458429
13.109756 15.070353 1.7475522
12.681744 15.513385 1.753033
27.388493 1.8200479 2.4014893
26.748053 2.3647788 2.3492875
27.066517 2.1254683 2.3753152
26.268559 2.8108182 2.3113496
26.58095 2.5587189 2.3362849
25.467365 3.4931233 2.2489667
25.785711 3.2595873 2.2739403
26.063608 3.0553734 2.2958896
24.992271 3.9795127 2.2140858
25.270512 3.7942231 2.2357013
25.615376 3.5136399 2.2620401
24.499544 4.4961681 2.1792285
24.743805 4.2539501 2.1966097
25.088573 4.0095568 2.22282
23.939919 4.9902744 2.139492
24.243849 4.7335711 2.1611605
23.375816 5.4600019 2.1001687
23.725756 5.2281137 2.1255798
22.908585 5.9136772 2.0699508
23.208143 5.6939712 2.0907068
22.38306 6.4490681 2.0379286
22.69647 6.1984272 2.0584509
21.923138 6.8840952 2.0103714
22.206152 6.6646819 2.0284266
21.798162 7.0823569 2.0052269
16.82748 11.449417 2.4990709
16.404318 11.902557 2.4885845
16.632959 11.671897 2.495003
15.889731 12.375893 2.473002
16.16202 12.178641 2.4848261
15.3516 12.887541 2.4611337
15.648468 12.647409 2.4705408
14.859134 13.33977 2.4518886
15.140373 13.139769 2.4615123
14.332657 13.83311 2.4458234
14.601468 13.600288 2.4500947
13.794191 14.345546 2.4436693
14.133827 14.089103 2.4503899
13.297912 14.798252 2.4429381
13.562192 14.561755 2.4433229
12.846233 15.201177 2.4437413
13.07638 15.021603 2.4453678
23.860502 4.9333272 2.9916742
23.389473 5.3879838 2.9470797
23.675447 5.1948709 2.9761837
22.858295 5.9136839 2.8990583
23.143637 5.6726999 2.9258235
22.359499 6.3547907 2.8541565
22.664461 6.1533432 2.8836417
21.800755 6.8977852 2.8076253
22.148727 6.6335211 2.8389015
21.34786 7.3496852 2.7722149
21.647474 7.0876908 2.7968297
20.801994 7.8029819 2.7280319
21.121471 7.561903 2.7546012
20.30859 8.2784052 2.6928728
20.557234 8.0584993 2.711148
19.492287 8.9953508 2.6359119
19.766472 8.7823629 2.6558504
20.055418 8.5513 2.6770117
18.953253 9.4903984 2.6026149
19.255442 9.2551994 2.6232555
19.51733 9.0187178 2.639884
18.448801 9.9488993 2.5736103
18.76375 9.6887341 2.5929835
19.01149 9.5090952 2.6100314
17.939075 10.443454 2.548708
18.231905 10.232679 2.5671594
17.43466 10.935405 2.526933
17.722757 10.696484 2.5417647
18.044426 10.517651 2.5644724
16.92767 11.390562 2.5052342
17.209309 11.173705 2.519428
16.764292 11.601464 2.5032594
27.695129 1.4228413 3.4050295
26.963306 1.9942563 3.319721
27.293262 1.7860118 3.3583937
27.587563 1.574244 3.3928413
26.490801 2.4908063 3.2670062
26.758551 2.2562702 3.2972348
27.109394 2.0133646 3.3377831
25.909262 2.9881752 3.2023361
26.2414 2.7234762 3.2393694
26.516163 2.5105135 3.2703309
25.414434 3.4794083 3.1496129
25.742619 3.2099257 3.185323
24.915533 3.9487207 3.0974281
25.232092 3.720896 3.1316652
25.506113 3.5111377 3.1612909
24.438896 4.3984795 3.0489583
24.72122 4.1969237 3.078862
23.972692 4.859076 3.0033634
24.213945 4.6781211 3.0281267
23.941818 5.0093069 3.0033419
20.49436 7.9934483 3.4841511
20.593901 7.9029117 3.4936862
19.974529 8.4795218 3.4369268
20.242319 8.2416267 3.4617255
20.50552 8.0062876 3.4865382
19.478508 8.9293613 3.3938127
19.688982 8.7526731 3.4127951
18.942108 9.441802 3.352196
19.20233 9.2032127 3.3727102
18.42127 9.9218225 3.3139441
18.706179 9.6551628 3.3342361
17.901293 10.401887 3.2792237
18.181356 10.155529 3.29847
17.384609 10.88456 3.2486465
17.651913 10.651737 3.2654338
16.840071 11.391477 3.2201862
17.130762 11.130482 3.2357001
16.353907 11.848652 3.198638
16.605314 11.606204 3.2087975
15.831001 12.330645 3.1783028
16.097429 12.097348 3.1893237
15.280363 12.847693 3.1620474
15.57888 12.579185 3.1714039
14.794201 13.293915 3.1503162
15.059131 13.059399 3.1570978
14.278096 13.777721 3.1427388
14.537656 13.53457 3.1459515
13.492815 14.494048 3.136384
13.742233 14.27953 3.1389921
14.024376 14.023314 3.141201
12.979011 14.985396 3.1399181
13.246618 14.745124 3.139538
13.509004 14.508883 3.1398513
12.449165 15.451123 3.1427276
12.718403 15.218984 3.141489
13.010003 15.003277 3.1452713
11.933961 15.931468 3.1527431
12.1978 15.697642 3.1487474
11.427876 16.427053 3.1694546
11.700023 16.177776 3.1622541
10.900196 16.900612 3.1852767
11.157426 16.670273 3.177192
10.400404 17.369017 3.2065012
10.647222 17.159105 3.198472
9.8303757 17.888464 3.2329314
10.1246 17.623672 3.2191873
9.3443127 18.34412 3.2607152
9.6021891 18.101614 3.2454436
8.811512 18.859388 3.297035
9.0967836 18.597036 3.2790143
8.3054743 19.30522 3.3287017
8.5778837 19.073893 3.3124626
7.7965856 19.796297 3.3699265
8.0628729 19.562096 3.3511989
6.9917274 20.489758 3.4289939
7.2794509 20.246922 3.4078593
7.5404921 20.068188 3.3954673
6.4834995 20.985775 3.4788325
6.7498012 20.749821 3.4560473
7.0176511 20.514641 3.4340467
6.3476424 21.124458 3.493602
6.5067 21.009436 3.4834991
24.880039 3.8905201 3.9885166
24.345675 4.3943777 3.9183109
24.661409 4.1092319 3.9598665
23.852808 4.852808 3.8553457
24.132551 4.6010818 3.8910923
23.352312 5.3327942 3.7938948
23.602152 5.1020188 3.8245783
22.826725 5.8264585 3.731364
23.081736 5.5833755 3.7612362
22.287697 6.3242664 3.6694481
22.563694 6.0815744 3.7012734
21.774588 6.8124881 3.6136804
22.056726 6.5553451 3.6444778
20.994734 7.4979157 3.5309346
21.274324 7.2741418 3.5611353
21.568649 7.0160122 3.592334
20.806232 7.7020736 3.5139775
21.016411 7.5134912 3.5349944
17.355988 10.889638 3.982774
17.531694 10.746384 3.997092
16.841412 11.381759 3.9511909
17.157923 11.117936 3.9741933
16.348373 11.849172 3.9247987
16.633854 11.623085 3.944524
15.843593 12.312485 3.900388
16.097855 12.141649 3.9193943
15.318196 12.824439 3.883399
15.603372 12.5949 3.897819
14.491239 13.494396 3.848999
14.790091 13.31389 3.8682811
15.073158 13.112471 3.8834279
14.297615 13.769354 3.8585744
14.598428 13.595141 3.8776309
13.491404 14.491673 3.848664
13.765585 14.278639 3.8554094
14.066742 14.06564 3.8667586
12.928543 14.982929 3.846751
13.258485 14.746448 3.854784
13.516218 14.517686 3.8556595
12.443097 15.4445 3.8552501
12.709358 15.209619 3.852905
13.000813 15.003258 3.8589211
11.926094 15.919024 3.8664098
12.197986 15.697948 3.864439
11.426406 16.435474 3.8909626
11.684213 16.239183 3.8888705
10.912597 16.861128 3.9040382
11.193652 16.671265 3.9033773
10.378554 17.387152 3.9360719
10.667369 17.178307 3.9306021
9.7911205 17.896711 3.9654424
10.180835 17.639668 3.9589608
9.4802504 18.140322 3.9786217
9.6291389 18.080555 3.9818687
5.950882 21.451651 3.5259306
6.1750135 21.292406 3.511394
5.4373779 21.938459 3.5798581
5.7079816 21.709009 3.5553162
4.9181652 22.407244 3.6334493
5.2082634 22.148771 3.6037614
4.3813281 22.915688 3.6952503
4.6648126 22.677738 3.6670492
4.1672249 23.135435 3.723295
27.990648 0.98877925 4.4360504
28.246716 0.75404239 4.4754758
27.476656 1.4754889 4.3581409
27.75613 1.2176381 4.4004054
28.005955 1.0063461 4.4385719
26.924419 1.9781406 4.2758999
27.194441 1.7372596 4.3160071
26.42675 2.4425669 4.2034326
26.717932 2.1794426 4.2457967
25.915588 2.917263 4.1305618
26.176641 2.675827 4.1676087
25.400076 3.4000978 4.0588746
25.657436 3.1625645 4.094523
24.982872 3.8006377 4.0024242
25.150093 3.6495845 4.0251403
21.998587 6.4995761 4.4588246
22.186029 6.407464 4.4888372
21.432783 6.9970341 4.3825011
21.784513 6.8113203 4.4367609
22.130527 6.5664239 4.487133
20.987514 7.4916368 4.3316741
21.296335 7.2616143 4.3737164
21.562012 7.0694747 4.4107733
20.483686 7.979372 4.2730689
20.738804 7.7666988 4.3047328
21.019886 7.5222178 4.3396029
19.931538 8.4809113 4.2104421
20.242168 8.2432861 4.2485418
20.507086 8.0068903 4.279242
19.443613 8.9476805 4.1604586
19.738581 8.7039557 4.1933722
20.009825 8.5064077 4.2263846
18.907677 9.4523535 4.1089745
19.201353 9.2011776 4.1388769
18.404846 9.908185 4.0630469
18.714861 9.630908 4.0913157
17.906548 10.408939 4.0260634
18.212152 10.148522 4.0526967
17.464102 10.892823 4.0008869
17.698092 10.641331 4.0142269
9.4248114 18.326488 4.0057898
9.6326885 18.189472 4.0008974
8.8845644 18.783773 4.0390449
9.0810204 18.68965 4.0390449
28.437559 0.58000207 4.5050182
25.394217 3.3949893 4.9800739
25.509415 3.2942324 4.9997044
24.889519 3.8762131 4.8963761
25.152819 3.664407 4.9408569
24.349627 4.3829527 4.8091946
24.624596 4.1593108 4.8543777
23.820139 4.8658938 4.7258267
24.149611 4.638134 4.7800355
23.341021 5.325098 4.6536512
23.641546 5.1029058 4.701282
22.841488 5.7893677 4.5804071
23.087713 5.6312852 4.6194
22.386688 6.2634954 4.518662
22.610355 6.0771561 4.5510054
19.863771 8.4821749 4.9865251
19.422983 8.8828716 4.9308786
19.701206 8.7204857 4.974185
18.896709 9.4062805 4.8732862
19.155293 9.2324715 4.9093275
18.402309 9.9048824 4.824882
18.647787 9.6480103 4.8473468
17.827414 10.420978 4.7674131
18.192314 10.141919 4.8086963
17.317818 10.89483 4.7235856
17.6651 10.625138 4.7592549
16.825968 11.353734 4.6863346
17.131048 11.105906 4.71347
16.32789 11.818437 4.6536245
16.659573 11.588865 4.6852846
15.814207 12.288362 4.6238246
16.106432 12.106479 4.6518207
14.919672 12.983194 4.5660567
15.275987 12.826519 4.6052823
15.601401 12.596661 4.629395
14.471495 13.481033 4.5660768
14.788155 13.282315 4.589201
15.070306 13.070792 4.6055803
13.977666 13.992311 4.5660567
14.262784 13.725711 4.5701189
14.62291 13.519585 4.5977674
13.473398 14.478961 4.5661402
13.742595 14.236055 4.5683603
12.942441 14.943732 4.5641408
13.213643 14.716271 4.5663204
12.387389 15.438465 4.5697904
12.695416 15.1941 4.5713301
11.94606 15.854152 4.5829711
12.174673 15.715489 4.5897059
11.37325 16.412994 4.6101217
11.719269 16.167625 4.6102061
10.910099 16.957039 4.6551552
11.188076 16.715481 4.644002
10.741187 17.064512 4.6551743
9.7370138 17.881218 4.7005773
9.4641619 18.245968 4.7453742
9.5895119 18.179155 4.7451363
28.136871 0.84854698 5.4717665
27.455305 1.4310161 5.3440127
27.72003 1.257534 5.3938355
28.020864 1.0137056 5.4502692
26.928797 1.9205538 5.2477503
27.246723 1.6860296 5.3063984
26.389475 2.4303484 5.151309
26.689266 2.1858592 5.2052855
25.897688 2.8979108 5.0654302
26.149048 2.6804929 5.1095395
25.674082 3.1523283 5.0280466
23.10404 5.4387078 5.4797912
22.382576 6.2255764 5.3637328
21.697851 6.8780618 5.255156
20.925117 7.4730563 5.1297836
21.195555 7.3341737 5.1781259
21.589777 7.0024481 5.2400098
20.439198 7.9226146 5.0608711
20.739149 7.7378817 5.1105514
21.004799 7.5116658 5.1500983
19.996653 8.4338503 5.0104218
20.230152 8.200223 5.0397391
20.557346 8.0127316 5.0938163
19.956394 8.5788965 5.0150037
17.681015 10.394468 5.4957118
17.297453 10.778225 5.4611659
17.555502 10.554154 5.488647
16.494839 11.493187 5.3868647
16.719187 11.297462 5.4069252
17.066608 11.018082 5.4432116
15.985158 11.985038 5.3533988
16.251905 11.751951 5.3741221
16.527306 11.514771 5.3973069
15.476889 12.477567 5.3269
15.741357 12.241113 5.3433251
16.007334 12.008842 5.3619771
14.955872 12.938644 5.2989612
15.192713 12.730474 5.3112888
15.506441 12.503186 5.3373661
14.436828 13.436723 5.2845783
14.725419 13.186137 5.2965865
13.918392 13.917155 5.2739944
14.193126 13.692485 5.284514
13.397358 14.398881 5.2699919
13.66 14.160809 5.2721367
12.847873 14.898824 5.2715507
13.148975 14.649158 5.2746487
12.335777 15.373917 5.2816811
12.615808 15.116775 5.2758422
11.824 15.855406 5.2998157
12.090611 15.61727 5.2921877
11.310534 16.353146 5.3279271
11.597085 16.076509 5.3115697
10.804748 16.804619 5.3533845
11.062281 16.60384 5.3460183
9.9811878 17.498884 5.3979301
10.274742 17.314665 5.3949928
10.559033 17.05879 5.3756981
9.4899111 17.989193 5.4497852
9.7797174 17.754272 5.4314289
10.050321 17.549795 5.4189906
8.9882221 18.417057 5.4911695
9.2637625 18.234434 5.4804497
9.5179262 18.017927 5.460103
28.320938 0.70698667 5.5067477
23.353306 5.2653031 5.5269189
23.507524 5.1137953 5.5540733
20.89892 7.4002004 5.9405932
21.129498 7.1966095 5.9810715
20.389574 7.8906784 5.8582654
20.647728 7.6557927 5.9006743
19.893318 8.3558445 5.781579
20.133837 8.1309729 5.8182411
19.345837 8.8582153 5.7013474
19.612906 8.6137209 5.7398095
18.843233 9.3298988 5.634131
19.100019 9.1003065 5.6691012
18.293982 9.8439503 5.5666032
18.579695 9.572958 5.6004009
17.837036 10.271967 5.5154123
18.068363 10.07009 5.5425792
17.629852 10.515758 5.5004225
8.9849005 18.48403 5.5069141
9.1513243 18.404655 5.5075297
8.4775953 18.974262 5.5685296
8.7356014 18.761116 5.5454197
9.0641422 18.514868 5.5236635
7.9428678 19.442511 5.6275954
8.2458687 19.218889 5.6037869
8.5077114 19.003803 5.5790606
7.3771744 19.938931 5.6966057
7.7069511 19.732225 5.6763973
8.0141268 19.517416 5.6533847
6.9062295 20.406857 5.7726865
7.186368 20.192831 5.743228
7.5122972 20.039223 5.7343946
6.3795967 20.895237 5.8540483
6.6759238 20.633078 5.8108816
6.2929897 21.038441 5.8840299
26.351179 2.3585837 6.1079893
26.588779 2.1998739 6.159481
25.844223 2.897171 6.0039902
26.119331 2.603297 6.0600104
22.947245 5.4452882 6.3194547
23.207163 5.1999784 6.3726325
22.441626 5.942205 6.2204566
22.726469 5.6935678 6.2778387
21.93469 6.4341836 6.1250405
22.218258 6.1848111 6.1798396
21.393467 6.934031 6.02597
21.713764 6.6709061 6.0866919
21.281599 7.0684152 6.0087166
