# .PCD v0.7 - Point Cloud Data file format
VERSION 0.7
FIELDS x y z
SIZE 4 4 4
TYPE F F F
COUNT 1 1 1
WIDTH 439
HEIGHT 1
VIEWPOINT 0 0 0 2.98023e-07 1 0 -0
POINTS 439
DATA ascii
12.707371 -16.046276 -2.513227
12.861559 -15.828501 -2.504245
13.008332 -15.668614 -2.5004747
16.411705 -12.091916 -2.5030057
16.505909 -12.005693 -2.5060751
16.494213 -11.994714 -2.5041237
16.722969 -11.760224 -2.5103323
16.986483 -11.349011 -2.5083694
17.094242 -11.200363 -2.509393
17.386745 -10.828932 -2.5150769
17.608385 -10.608157 -2.5240903
17.844452 -10.34424 -2.5325854
18.076759 -10.076434 -2.5411034
18.324745 -9.8005428 -2.551657
18.561907 -9.5621729 -2.5637655
18.800667 -9.3006792 -2.5755339
19.092936 -9.0514259 -2.5944118
19.293701 -8.8352871 -2.6056225
19.509571 -8.5799952 -2.6168876
19.485962 -8.4418774 -2.607424
19.508221 -8.425992 -2.609189
12.920691 -15.705997 -2.4971824
13.060921 -15.561093 -2.4944956
13.292454 -15.292896 -2.4879875
13.521111 -15.026548 -2.4819717
13.751369 -14.75129 -2.4762721
14.003919 -14.50655 -2.4757147
13.983969 -14.483761 -2.4719956
14.227057 -14.227929 -2.4706032
14.468698 -13.966057 -2.4691429
14.706912 -13.706123 -2.4684875
14.944599 -13.444526 -2.4682431
15.19375 -13.194355 -2.4709096
15.438919 -12.93998 -2.473464
15.67088 -12.71194 -2.4776843
15.928357 -12.427276 -2.4805765
16.190067 -12.16501 -2.4865496
16.966759 -11.249166 -2.4995477
17.016291 -11.177614 -2.499784
22.229448 -5.6236229 -2.0061014
22.430225 -5.3852959 -2.0181682
22.618307 -5.1890059 -2.0302711
12.769276 -16.113771 -1.7987617
12.921728 -15.880976 -1.7912325
13.127878 -15.667125 -1.7883133
13.385249 -15.385567 -1.7841923
13.624309 -15.123383 -1.7808796
13.885355 -14.826431 -1.7772044
14.101173 -14.601346 -1.775938
14.341503 -14.34198 -1.7745072
14.584873 -14.084758 -1.7738885
14.827758 -13.827385 -1.7738351
15.066251 -13.565753 -1.7737216
15.300508 -13.3009 -1.7737707
15.551552 -13.053292 -1.77635
15.777196 -12.758061 -1.775219
16.026646 -12.528708 -1.7797457
16.268137 -12.263613 -1.7824442
16.526121 -12.030921 -1.788407
16.767458 -11.767144 -1.7922274
17.009676 -11.510341 -1.7968602
16.997503 -11.495199 -1.795234
17.243299 -11.197659 -1.798836
17.477665 -10.925634 -1.803287
17.698347 -10.699145 -1.8094119
17.937063 -10.436594 -1.8156039
18.148222 -10.215496 -1.8220762
18.403496 -9.9037886 -1.828457
18.653318 -9.6537619 -1.8375903
18.886154 -9.3870344 -1.8451914
19.127834 -9.1289244 -1.8543049
19.353563 -8.8695621 -1.8625789
19.610579 -8.609746 -1.8737884
19.847507 -8.3474522 -1.8837847
20.074133 -8.1169529 -1.8944107
20.295752 -7.74475 -1.9005754
20.503937 -7.5058718 -1.9102794
20.488638 -7.4851007 -1.9083939
20.723169 -7.2233615 -1.9200816
20.948675 -6.9503264 -1.931015
21.2012 -6.7014031 -1.945364
21.440275 -6.4407959 -1.9585985
21.699669 -6.1995964 -1.9744805
21.936068 -5.9359989 -1.9881929
22.072557 -5.7877207 -1.9963976
12.82711 -16.080143 -1.0780116
12.942719 -15.943021 -1.0762092
13.160227 -15.710644 -1.0740963
13.420574 -15.420097 -1.0713485
13.665504 -15.152486 -1.0693806
13.898854 -14.899112 -1.0678489
14.125621 -14.664989 -1.067125
14.379791 -14.379122 -1.0657561
14.620972 -14.120234 -1.0652622
14.885255 -13.826746 -1.0647476
15.100906 -13.601036 -1.0650967
15.333235 -13.345483 -1.065346
15.578094 -13.077888 -1.0659682
15.840117 -12.789097 -1.0669822
16.056786 -12.556743 -1.0682672
16.273853 -12.335505 -1.0702307
16.574614 -12.07621 -1.0747538
16.84178 -11.774319 -1.0769835
17.024895 -11.579962 -1.0790737
17.250837 -11.249747 -1.0793694
17.503374 -11.003276 -1.0835112
17.48867 -10.98791 -1.0824305
17.729454 -10.729334 -1.0861009
17.965784 -10.467755 -1.0897088
18.205286 -10.20527 -1.0938129
18.44208 -9.9429426 -1.098034
18.639109 -9.7309475 -1.1019727
18.922606 -9.4219093 -1.1078242
19.162689 -9.1618586 -1.113176
19.40012 -8.8992586 -1.1185937
19.624022 -8.6639128 -1.1242368
19.877188 -8.3770084 -1.1304613
20.117691 -8.1165943 -1.1369112
20.372704 -7.8341308 -1.1439234
20.597864 -7.5985489 -1.1506085
20.829794 -7.3439021 -1.1575245
21.076166 -7.0772529 -1.1651717
21.313818 -6.8134284 -1.1727135
21.56048 -6.5611706 -1.1811028
21.780178 -6.2996874 -1.1882682
22.02173 -6.0272636 -1.1965524
22.252785 -5.7747483 -1.2048799
22.510324 -5.5104542 -1.2145532
22.495869 -5.496901 -1.2136447
22.731436 -5.256722 -1.2227684
23.00588 -5.0034761 -1.2338725
22.976166 -4.9864955 -1.2321607
23.014559 -4.977354 -1.2340255
12.833688 -16.144182 -0.3599925
12.975912 -15.974256 -0.35923246
13.214515 -15.713884 -0.35839573
13.44864 -15.44883 -0.35752356
13.665186 -15.226512 -0.3571274
13.934047 -14.933655 -0.35651907
14.172998 -14.67285 -0.35609409
14.433055 -14.381666 -0.35565099
14.651816 -14.151074 -0.35556296
14.887871 -13.888086 -0.35538813
15.128819 -13.628476 -0.3554267
15.368879 -13.367594 -0.35554439
15.607551 -13.106894 -0.35575533
15.847759 -12.848226 -0.35611957
16.066193 -12.617389 -0.35658085
16.326918 -12.326453 -0.35709521
16.568178 -12.068757 -0.35779163
16.841442 -11.773891 -0.35869354
17.050049 -11.551753 -0.35948548
17.285053 -11.285294 -0.36033815
17.523754 -11.025951 -0.36138776
17.777975 -10.74684 -0.36262304
18.008425 -10.509911 -0.36395454
18.225634 -10.256392 -0.3650569
18.479504 -9.9788094 -0.36658409
18.7197 -9.7189131 -0.36818013
18.951185 -9.4520578 -0.36965761
19.182415 -9.2191162 -0.37150162
19.438126 -8.9370356 -0.37343898
19.675634 -8.6764488 -0.37535658
19.917585 -8.416831 -0.37743178
20.153263 -8.1532316 -0.37947926
20.391893 -7.8929391 -0.38167819
20.629574 -7.6311865 -0.38394198
20.890188 -7.3393474 -0.38649464
21.10578 -7.1055274 -0.38872275
21.346523 -6.8467531 -0.3913072
21.564499 -6.6164579 -0.39373183
21.828402 -6.3273969 -0.396707
22.078875 -6.0554762 -0.39962083
22.313887 -5.7939439 -0.4024148
22.552366 -5.5518737 -0.40540639
22.784485 -5.2853189 -0.40827441
23.024382 -5.0257916 -0.41135621
23.074474 -4.9731612 -0.41201445
8.3608084 -21.102022 0.39619568
8.5258169 -21.057051 0.39653689
8.3427563 -20.970766 0.39394876
8.7423925 -20.776033 0.39346018
8.9405775 -20.492867 0.39026481
9.1078911 -20.37113 0.38950217
12.850024 -16.188162 0.36077228
13.010464 -16.011465 0.36011598
12.998138 -15.994209 0.35974646
13.231547 -15.756866 0.3591598
13.479876 -15.478685 0.35827312
13.722787 -15.222532 0.35775292
13.98212 -14.93009 0.35704428
14.203892 -14.703559 0.35685781
14.439635 -14.440383 0.35645548
14.680054 -14.180991 0.35628197
14.920514 -13.918381 0.35616383
15.157429 -13.657176 0.35613587
15.398255 -13.397813 0.35627833
15.626822 -13.164905 0.35666642
15.881305 -12.881488 0.35693732
16.119701 -12.620018 0.35734671
16.38257 -12.324358 0.35784531
16.575588 -12.116425 0.35838693
16.832123 -11.832736 0.35914859
17.077711 -11.57846 0.36014763
17.339277 -11.287953 0.36115327
17.554459 -11.054841 0.3621119
17.795172 -10.795361 0.36331487
18.032862 -10.538857 0.36457908
18.269829 -10.269536 0.36584106
18.51483 -10.013533 0.3674157
18.749475 -9.7484579 0.36887822
19.003458 -9.5037813 0.37087527
18.989933 -9.4903803 0.37055919
19.228891 -9.2296333 0.37231654
19.46937 -8.968976 0.37416583
19.705679 -8.7044125 0.37603638
19.945112 -8.4454966 0.37806857
20.160696 -8.2124119 0.37999204
20.423058 -7.9215217 0.38236466
20.667553 -7.6547403 0.38470894
20.89835 -7.3983269 0.38696909
21.114649 -7.1721716 0.38924387
21.381939 -6.8818421 0.39208132
21.621683 -6.6217055 0.39471349
21.867289 -6.3493156 0.39746189
22.098688 -6.1026735 0.40017411
22.332979 -5.846509 0.40296549
22.580765 -5.5811925 0.40601137
22.840412 -5.2887411 0.40923664
23.056524 -5.0570297 0.41202113
23.22286 -4.8741102 0.41419163
8.7852182 -20.741764 1.1805433
9.2030745 -20.236372 1.165082
9.591713 -20.025501 1.163667
9.3130589 -19.971428 1.154865
12.868744 -16.225742 1.0853492
13.037446 -16.040598 1.0833005
13.277344 -15.777407 1.0807319
13.51438 -15.517344 1.0784112
13.752812 -15.251683 1.0763206
14.006074 -15.002604 1.0756348
13.98979 -14.989004 1.0745317
14.21818 -14.749235 1.0736992
14.472429 -14.470228 1.07256
14.721479 -14.20091 1.0720187
14.946365 -13.94576 1.0713284
15.158366 -13.725983 1.0717403
15.429493 -13.429139 1.0720149
15.670407 -13.169457 1.0727853
15.925421 -12.884119 1.0735608
16.150412 -12.650997 1.0751916
16.387623 -12.38734 1.0766085
16.626669 -12.127752 1.078559
16.867575 -11.867352 1.0808735
17.107735 -11.607118 1.0834721
17.347296 -11.347071 1.0863738
17.564507 -11.115124 1.0893576
17.8251 -10.825053 1.0929701
18.06778 -10.567502 1.0969636
18.316484 -10.289896 1.1010537
18.548813 -10.051918 1.1056694
18.785822 -9.7859221 1.1101323
19.030775 -9.5325928 1.1154885
19.280813 -9.2430696 1.120611
19.505587 -9.0074549 1.1259775
19.495493 -8.9955492 1.1252357
19.723618 -8.7606411 1.1310818
19.978842 -8.4777956 1.1374137
20.219301 -8.2189331 1.1438843
20.451775 -7.9492612 1.1499532
20.679396 -7.7162609 1.156776
20.934868 -7.4357433 1.1643057
21.174574 -7.1746025 1.1717051
21.414848 -6.9137979 1.1793498
21.662849 -6.6496596 1.1876013
21.894966 -6.3951797 1.195419
22.100571 -6.1754842 1.2026232
22.373911 -5.8728766 1.2122996
22.614225 -5.6129279 1.2211282
22.850286 -5.3501444 1.2299361
23.073673 -5.115386 1.2386068
23.329975 -4.8296742 1.2486145
23.569244 -4.5701251 1.2582225
23.841043 -4.2739787 1.2693948
24.051979 -4.0531931 1.2782869
24.27853 -3.7995057 1.287894
24.542301 -3.5180941 1.2993572
24.746304 -3.2886074 1.3083284
25.009573 -3.0091596 1.3201482
24.998146 -2.9952307 1.319468
25.248739 -2.7480814 1.3310667
25.487543 -2.4867711 1.3420877
25.7248 -2.2259722 1.3532411
25.963493 -1.9617374 1.3645678
26.213476 -1.6954033 1.3766762
26.441236 -1.4418955 1.3877878
26.681711 -1.1815435 1.3997099
26.919828 -0.92055291 1.4116346
27.166227 -0.65198225 1.4241419
27.398252 -0.39634454 1.4360398
27.590281 -0.19163091 1.445986
12.956958 -16.207916 1.8154316
13.073634 -16.073961 1.8127222
13.336537 -15.776022 1.8073746
13.553741 -15.55352 1.8049446
13.817056 -15.263582 1.801324
14.031963 -15.043129 1.7997887
14.240879 -14.80925 1.7975795
14.510925 -14.512512 1.7955025
14.497885 -14.496935 1.7937305
14.747497 -14.247763 1.7940891
15.001225 -14.003561 1.7954082
14.983276 -13.981873 1.7929691
15.225776 -13.725641 1.7935197
15.431956 -13.481108 1.7927415
15.705795 -13.205857 1.7953205
15.944415 -12.94476 1.7968119
16.1775 -12.709702 1.7999479
16.408213 -12.445943 1.801793
16.666155 -12.165935 1.8053057
16.900681 -11.89907 1.8083509
17.149042 -11.649395 1.8138144
17.390116 -11.390015 1.8187507
17.624149 -11.124512 1.8234174
17.865452 -10.865153 1.8294079
18.108816 -10.607238 1.8361181
18.342796 -10.344022 1.8424078
18.583437 -10.084004 1.84979
18.844429 -9.7940397 1.8581002
19.06356 -9.5637169 1.8659673
19.318653 -9.282258 1.875183
19.548697 -9.049449 1.8846582
19.809221 -8.7488461 1.8946515
20.02553 -8.5257006 1.9041824
20.269716 -8.2430172 1.9144516
20.504148 -8.0059357 1.9257749
20.494799 -7.9938507 1.9246269
20.728561 -7.7548509 1.9363188
20.974945 -7.4735241 1.9480737
21.218531 -7.2181721 1.9609119
21.430294 -6.9800267 1.971854
21.68235 -6.7190046 1.9859912
21.916046 -6.446568 1.9986386
21.967764 -6.4048166 2.0019505
22.158504 -6.2077026 2.0132957
22.440639 -5.8896747 2.0298076
22.661213 -5.6605949 2.0435431
22.898211 -5.3977904 2.0582514
23.125227 -5.1643496 2.0730488
23.378107 -4.8780499 2.0893836
23.595999 -4.6440864 2.1040001
23.884653 -4.3269839 2.1236656
24.100342 -4.1009917 2.1388285
24.332598 -3.8456707 2.1552744
24.575529 -3.5756123 2.1727202
24.846296 -3.281369 2.1926649
25.056833 -3.0576916 2.2084553
25.297165 -2.7965527 2.2267294
25.533195 -2.5352118 2.2448432
25.774679 -2.2753127 2.2637963
26.015654 -2.0145161 2.2828906
26.260866 -1.7476691 2.3026388
26.505604 -1.5043234 2.3226709
26.491184 -1.4946535 2.3213639
26.732906 -1.233168 2.3413446
26.976126 -0.96988779 2.361623
27.219969 -0.70081002 2.3822558
27.441925 -0.45453563 2.401186
27.661266 -0.23207691 2.4201474
13.179327 -16.149534 3.3015287
13.397427 -15.914621 3.2949047
13.63685 -15.670923 3.2902856
13.899452 -15.34917 3.2797582
14.103622 -15.152077 3.2786369
14.350872 -14.849313 3.2708139
14.60363 -14.604782 3.2712269
14.851092 -14.300933 3.2655289
15.090907 -14.092368 3.2703168
15.304015 -13.812068 3.2652347
15.562373 -13.56235 3.2695172
15.794225 -13.29383 3.2698381
16.053099 -13.052135 3.276931
16.274521 -12.773331 3.2768614
16.522161 -12.524371 3.2837274
16.491184 -12.491912 3.2767103
16.770493 -12.240588 3.2885876
17.024839 -12.016209 3.3004627
16.983574 -11.981582 3.2919602
17.232296 -11.738422 3.3024929
17.506758 -11.506352 3.318079
17.477053 -11.473683 3.3113031
17.709721 -11.209563 3.319711
17.940039 -10.93884 3.327981
18.198357 -10.698783 3.3436477
18.44516 -10.39502 3.3534441
18.664537 -10.196013 3.3685758
18.901464 -9.9003687 3.3795331
19.16086 -9.6494131 3.397934
19.371622 -9.4049397 3.4106843
19.644884 -9.144187 3.4320571
19.877441 -8.8390656 3.4455619
20.110415 -8.6117039 3.4649541
20.349545 -8.3479376 3.4837646
20.530607 -8.1523323 3.4987202
20.497179 -8.2616367 3.5002213
20.603033 -8.0990934 3.5063102
20.830097 -7.8304482 3.5246232
21.092554 -7.5930977 3.5506365
21.303579 -7.3038993 3.5670435
21.579044 -7.062294 3.5961807
21.773367 -6.8139658 3.6135716
22.054132 -6.5501914 3.643851
22.279657 -6.2726026 3.6660159
22.512152 -6.0303774 3.691278
22.496294 -5.9965463 3.6874733
22.72612 -5.7818041 3.7142057
23.022522 -5.5603199 3.7512596
22.986958 -5.487812 3.7430911
23.261055 -5.2197247 3.7758777
23.519068 -5.0151739 3.8088052
23.436247 -4.9859085 3.7950094
23.722637 -4.7140532 3.8308208
24.064817 -4.510129 3.8778539
23.94039 -4.4464979 3.8566349
24.224295 -4.1934566 3.8938637
24.435495 -3.9373446 3.9201233
24.708879 -3.6769559 3.9566393
24.923935 -3.3846784 3.9838176
25.01388 -3.3483975 3.997155
25.151623 -3.1743171 4.0152745
25.395712 -2.9027331 4.0484848
25.67465 -2.6614261 4.0883188
25.8731 -2.37415 4.1151505
26.165495 -2.1142316 4.1577392
26.382551 -1.8270665 4.1886311
26.627325 -1.6252218 4.225225
26.824265 -1.3553556 4.253994
27.112659 -1.1078422 4.2978158
27.215513 -0.94068235 4.313087
