# .PCD v0.7 - Point Cloud Data file format
VERSION 0.7
FIELDS x y z
SIZE 4 4 4
TYPE F F F
COUNT 1 1 1
WIDTH 402
HEIGHT 1
VIEWPOINT 0 0 0 2.98023e-07 1 0 -0
POINTS 402
DATA ascii
-16.75482 13.357805 -0.37402907
-16.570152 13.570865 -0.37385753
-16.325485 13.839588 -0.37358603
-16.101103 14.100941 -0.37359139
-15.822627 14.272551 -0.37194973
-16.716133 13.302726 0.37290588
-16.51796 13.519348 0.37258184
-16.27693 13.776608 0.37223461
-16.020306 14.071955 0.37219608
-15.796287 14.296505 0.37189588
-15.532614 14.532396 0.37128741
-15.279232 14.77918 0.37106392
-15.031468 15.029387 0.37102926
-14.797451 15.271338 0.37118378
-14.507853 15.589211 0.37171572
-14.317338 15.777466 0.37189436
-14.016451 16.085449 0.37241298
-13.849112 16.274376 0.373016
-13.581375 16.582783 0.37414467
-13.340946 16.845095 0.37508336
-13.119594 17.120453 0.37649757
-12.888466 17.38802 0.37779725
-12.648345 17.648634 0.37900814
-12.405606 17.891666 0.38003376
-12.171768 18.159603 0.38160059
-11.924886 18.423845 0.38307604
-11.675213 18.712097 0.38499194
-11.442294 18.941967 0.38627681
-11.207335 19.207876 0.38818336
-10.982533 19.428228 0.3895539
-10.726069 19.746347 0.39225209
-10.485881 19.984663 0.39393514
-10.504996 20.003416 0.39438072
-10.285824 20.218224 0.39596242
-16.748459 13.261871 1.1196268
-16.488533 13.487274 1.1163937
-16.502951 13.501497 1.1174512
-16.249926 13.749812 1.1156174
-15.998841 13.996065 1.1140232
-16.011402 14.012132 1.1150719
-15.768758 14.268435 1.1145469
-15.52694 14.530598 1.114481
-15.279129 14.799649 1.1148378
-15.054112 15.054726 1.1157738
-14.843845 15.275724 1.1163116
-14.575793 15.576919 1.1180183
-14.27788 15.853188 1.1181465
-14.084015 16.126528 1.1221014
-13.820113 16.28956 1.1195822
-13.600806 16.605417 1.1249146
-13.363657 16.814095 1.1256433
-13.239535 17.026766 1.1303557
-12.864512 17.366842 1.1326796
-12.600437 17.693333 1.1384108
-12.440984 17.850124 1.1402951
-12.156999 18.205883 1.1473215
-11.940835 18.4424 1.1514353
-11.703629 18.703798 1.1563432
-11.4809 18.928123 1.1601994
-11.223928 19.224077 1.166676
-10.98455 19.477459 1.1719114
-10.746262 19.745913 1.1781987
-10.497567 19.996223 1.1835897
-10.511436 20.012068 1.1846625
-10.280309 20.249939 1.1902151
-10.029212 20.529476 1.1974264
-9.7999029 20.775099 1.2038592
-9.5523911 21.052938 1.2116002
-9.3406296 21.272808 1.2176195
-9.0762672 21.615776 1.2286499
-16.683348 13.227174 1.8627372
-16.449385 13.449748 1.8589703
-16.219769 13.719444 1.8586707
-15.979323 13.977747 1.8573893
-15.730159 14.255357 1.8573242
-15.494469 14.493464 1.8562009
-15.50668 14.507122 1.857798
-15.256476 14.756051 1.8570126
-15.020028 15.021519 1.8584847
-14.772161 15.292096 1.8602339
-14.552635 15.553505 1.8635206
-14.322602 15.785486 1.8648484
-14.073239 16.074137 1.869143
-13.826798 16.340599 1.8727752
-13.573492 16.614717 1.877022
-13.346223 16.847923 1.8804796
-13.092629 17.095438 1.8839182
-12.889766 17.3356 1.8900079
-12.600074 17.677158 1.8992373
-12.40676 17.875071 1.903668
-12.15296 18.152859 1.9112568
-11.926293 18.385748 1.9173323
-11.650243 18.701511 1.927727
-11.433084 18.932411 1.9349718
-11.197093 19.19783 1.9444504
-10.946586 19.445021 1.9522749
-10.708974 19.70854 1.9624313
-10.486734 19.930233 1.9703187
-10.505064 20.000717 1.9765179
-10.241373 20.241161 1.9847004
-9.9845085 20.48476 1.9937351
-10.005575 20.507519 1.9963325
-9.9002542 20.585571 1.998466
-9.7415237 20.773037 2.0073652
-9.4967451 20.987364 2.0153894
-9.5217381 21.024366 2.0192373
-9.2761574 21.285074 2.0314043
-9.0534315 21.554346 2.0453572
-8.8658657 21.746187 2.0546026
-16.654951 13.160115 2.6063719
-16.40996 13.413826 2.6024022
-16.172657 13.676579 2.6006656
-15.939635 13.939857 2.5999975
-15.688547 14.218788 2.5998321
-15.456471 14.454426 2.5983858
-15.22108 14.720959 2.6000769
-14.976336 14.973444 2.6002784
-14.752883 15.213718 2.602133
-14.490347 15.489285 2.6043413
-14.506912 15.506474 2.607259
-14.256017 15.756216 2.6090388
-14.02426 16.027811 2.614928
-13.778589 16.297279 2.6204462
-13.550645 16.551907 2.6265202
-13.292151 16.794193 2.6298645
-12.994895 16.988947 2.6262436
-13.018838 17.03549 2.6325443
-12.841825 17.289911 2.6445
-12.560292 17.6126 2.656152
-12.345557 17.845858 2.6644611
-12.105053 18.105146 2.6741562
-11.889544 18.331041 2.6827939
-11.604262 18.652954 2.6973746
-11.399943 18.865858 2.7065432
-11.147696 19.148407 2.7205966
-10.899098 19.398619 2.7320926
-10.659822 19.659315 2.7459269
-10.442696 19.895025 2.7588718
-10.175128 20.212919 2.7786314
-9.9418411 20.4403 2.7909143
-9.7248478 20.68326 2.8063619
-9.4823856 20.933739 2.8217192
-9.2164183 21.254015 2.8445146
-8.9891815 21.485586 2.8596761
-9.0058241 21.506767 2.8628724
-8.7524099 21.751438 2.8788939
-8.4942532 21.989374 2.8943965
-8.5161161 22.025337 2.8994832
-8.2889566 22.269041 2.9176099
-8.0199451 22.5695 2.9409335
-7.7976098 22.797167 2.9584064
-7.5843778 23.06295 2.980984
-16.755812 12.978826 3.3568871
-16.663816 13.100525 3.3573132
-16.379011 13.379267 3.3496902
-16.112976 13.670434 3.3468266
-15.895032 13.895347 3.3439083
-15.655453 14.154696 3.3428786
-15.43812 14.386219 3.3422766
-15.155333 14.706246 3.3448179
-14.937837 14.938205 3.3459702
-14.703082 15.203195 3.349921
-14.464692 15.461746 3.3534689
-14.222103 15.723044 3.358041
-13.977129 15.976372 3.3620901
-13.721417 16.259081 3.3697813
-13.494047 16.49309 3.3751583
-13.505626 16.506721 3.3779867
-13.257825 16.737482 3.381952
-12.98424 16.928894 3.3791203
-13.014483 17.001728 3.391186
-12.795876 17.263941 3.4036222
-12.552161 17.552996 3.4178317
-12.300735 17.800383 3.4270732
-12.065057 18.064535 3.4406197
-11.824308 18.322983 3.4539604
-11.562316 18.613136 3.4705398
-11.344036 18.844292 3.4837766
-11.124049 19.071533 3.4969342
-11.071507 19.143764 3.5026493
-10.886206 19.327106 3.5133438
-10.621716 19.621332 3.5338771
-10.380678 19.881657 3.5523586
-10.128509 20.167147 3.5744109
-9.8908911 20.412115 3.5925391
-9.6950092 20.629908 3.610352
-9.4279594 20.925753 3.6351845
-9.1546726 21.221909 3.6606951
-8.940567 21.439672 3.6791432
-8.7076168 21.700453 3.70347
-8.483675 21.932358 3.7245667
-8.2239399 22.223848 3.753273
-7.9808998 22.476915 3.7777421
-7.7556758 22.736067 3.8048522
-7.5558739 23.010643 3.8359816
-16.757139 12.933949 4.1146765
-16.599018 13.09982 4.1103148
-16.342184 13.349739 4.1018286
-16.110882 13.611402 4.0997248
-15.878698 13.877058 4.0991502
-15.616553 14.170537 4.0990543
-15.398787 14.399126 4.0979915
-15.158297 14.658753 4.0989428
-14.926363 14.897039 4.0991831
-14.664985 15.180655 4.1029334
-14.447403 15.404234 4.1051712
-14.201816 15.70169 4.1154599
-13.95134 15.950775 4.1191726
-13.720693 16.22057 4.1298275
-13.473623 16.471931 4.1365142
-13.20923 16.748531 4.1463861
-12.983988 16.897974 4.1422935
-12.755941 17.256428 4.1713939
-12.521338 17.5245 4.1866088
-12.296852 17.767513 4.2002378
-12.047935 18.050064 4.2183743
-11.798463 18.298897 4.2323127
-11.560857 18.560946 4.2505231
-11.332157 18.791771 4.2656312
-11.05844 19.103062 4.2905707
-10.875538 19.294788 4.305357
-10.60139 19.60232 4.3318892
-10.352393 19.851887 4.3520594
-10.100194 20.143377 4.380157
-9.8849707 20.372381 4.4015632
-9.6471272 20.648605 4.4301958
-9.3979721 20.897657 4.4539862
-9.1596966 21.157743 4.4815712
-8.9884071 21.325369 4.4983931
-16.757229 12.91243 4.8840652
-16.566639 13.066711 4.8712358
-16.345673 13.284372 4.8629313
-16.062389 13.613363 4.8610344
-15.841329 13.841373 4.8567257
-15.603208 14.103978 4.8558631
-15.353948 14.35355 4.8525438
-15.12164 14.621356 4.8562403
-14.883678 14.883735 4.8595357
-14.647576 15.148091 4.864882
-14.398422 15.397771 4.8669553
-14.162959 15.662977 4.8752871
-13.927747 15.926663 4.8846231
-13.679546 16.21484 4.8978601
-13.439839 16.433565 4.9012327
-13.199382 16.68936 4.9126015
-12.959126 16.899284 4.9166365
-12.711474 17.245001 4.9461846
-12.483118 17.483084 4.9595652
-12.507205 17.509438 4.9677486
-12.250253 17.750093 4.9792905
-11.991382 17.991201 4.9916487
-12.01606 18.009375 4.9983015
-11.936893 18.062672 4.998456
-9.0454884 21.316223 4.5010815
-8.9141159 21.41415 4.5087481
-8.6727095 21.709871 4.5443149
-8.4389 21.93833 4.5690155
-8.2020588 22.202171 4.6008177
-7.952816 22.447527 4.6291099
-7.6984887 22.757813 4.670032
-7.549767 23.0145 4.7081232
-12.093498 17.97324 5.001328
-12.021906 18.030962 5.0032005
-11.756176 18.279634 5.0177765
-11.491275 18.495667 5.0270939
-11.546422 18.54879 5.0442429
-11.290912 18.791082 5.061316
-11.049618 19.081549 5.0906572
-10.824002 19.281874 5.1051359
-10.55403 19.604469 5.1402631
-10.349895 19.799971 5.1581292
-10.091349 20.112473 5.1950655
-9.8677759 20.319447 5.2151117
-9.6092501 20.610392 5.2500725
-9.3504171 20.872807 5.2803755
-9.1330376 21.129112 5.3142905
-8.8911915 21.390451 5.3480296
-8.6381512 21.663906 5.3845177
-8.4186945 21.874613 5.4112883
-8.1757879 22.18474 5.4585719
-7.9087863 22.400667 5.4844985
-16.695166 12.84317 5.6440411
-16.495386 12.993382 5.6264591
-16.51211 13.011827 5.6330514
-16.271145 13.246503 5.6221414
-16.01996 13.522014 5.6172285
-15.778375 13.778495 5.6131186
-15.547405 14.050938 5.6151519
-15.298038 14.2989 5.6110721
-15.062076 14.562716 5.6137843
-14.818308 14.817787 5.6151953
-14.570656 15.111282 5.6247687
-14.345162 15.345409 5.6287403
-14.109464 15.608413 5.6378078
-13.892406 15.841054 5.6457391
-13.626773 16.127544 5.6574879
-13.380237 16.381046 5.6674752
-13.158629 16.60461 5.6769471
-12.904806 16.879992 5.6933694
-12.659199 17.159569 5.7138143
-12.434992 17.393517 5.7291617
-12.174505 17.710726 5.7587972
-11.938542 17.939489 5.7740135
-11.712393 18.201153 5.7996235
-11.449376 18.448389 5.8178577
-11.222514 18.722265 5.8490319
-10.973193 18.972477 5.8727064
-10.750275 19.234756 5.9044166
-10.491271 19.490673 5.9310327
-10.50718 19.508547 5.9372668
-10.257227 19.755611 5.9646406
-10.028782 20.012291 5.9979305
-9.988698 20.034527 5.9984493
-7.8997383 22.48344 5.5018082
-7.6991696 22.691469 5.5321655
-7.4214478 22.922222 5.5624862
-7.2210712 23.210522 5.6119938
-6.9416404 23.437437 5.6432776
-6.7357965 23.750341 5.6995339
-6.4265537 23.99099 5.7340498
-6.5084281 24.021263 5.7456999
-6.22999 24.280361 5.7872415
-6.0062118 24.501568 5.8241081
-5.7442727 24.794865 5.876071
-5.5302014 25.06225 5.925283
-5.2861404 25.269806 5.9603653
-10.081261 19.996511 6.0004606
-10.021448 20.037897 6.0031753
-9.7720251 20.292229 6.0350771
-9.5498466 20.55073 6.0720806
-9.3012981 20.794254 6.10393
-9.0631666 21.062515 6.144011
-8.8147259 21.320309 6.1818972
-8.5761604 21.57711 6.2215438
-8.3404589 21.840137 6.2643433
-8.1043348 22.093315 6.3056388
-7.8505774 22.349375 6.3472872
-7.6072321 22.620052 6.3946328
-7.3937478 22.843149 6.433506
-7.1354589 23.126011 6.484889
-5.1528621 25.48982 6.0038285
-5.057394 25.543039 6.0115485
-4.7863288 25.809328 6.0602126
-4.5256033 26.098728 6.1152811
-4.335011 26.287952 6.1511059
-4.0881104 26.583845 6.2095222
-3.846489 26.824265 6.2562623
-3.6059523 27.088598 6.3090768
-3.3505037 27.337851 6.3587112
-3.1258607 27.614738 6.4161081
-2.8764181 27.824694 6.4580946
-2.7445564 28.011772 6.498013
-7.065155 23.237392 6.5078964
-6.8894219 23.389994 6.5335922
-6.6382184 23.667433 6.5864592
-6.4012485 23.900587 6.6298943
-6.1449704 24.186153 6.6866174
-5.920979 24.420038 6.7329464
-5.647759 24.724043 6.7955031
-5.4357262 24.934538 6.8381195
-5.1974788 25.203897 6.8955531
-4.9444079 25.445343 6.9455895
-4.8060675 25.60421 6.9804692
-2.5955048 28.16872 6.5308275
-2.3879862 28.370371 6.5729957
-2.1315072 28.697973 6.6437654
-1.8739458 28.906509 6.6876125
-1.6506184 29.184811 6.7486577
-1.3975464 29.411818 6.7979312
-1.1330196 29.723932 6.8673158
-0.90730828 29.935036 6.9142256
-0.70336753 30.203537 6.9749603
-4.6376662 25.798529 7.0235481
-4.4322696 25.982224 7.0624933
-4.2368903 26.236698 7.1212659
-3.98876 26.486149 7.1769681
-4.0070057 26.510239 7.1840811
-3.7712672 26.728704 7.2329698
-3.4958706 26.99576 7.2938905
-3.5143781 27.017555 7.3003187
-3.2658486 27.258301 7.3561864
-3.0254538 27.529997 7.4210587
-2.8285286 27.735014 7.4701662
-0.41108942 30.48156 7.0378675
-0.2230411 30.69755 7.087316
0.010777021 30.873888 7.127799
0.20839012 31.145901 7.1907921
-2.6650269 27.91717 7.5144014
-2.552994 28.051331 7.5474148
-2.3293092 28.26281 7.5987134
-1.8186885 28.801392 7.7327185
-1.5800865 29.073406 7.8016953
-1.3122306 29.356718 7.8740096
-1.0972806 29.597891 7.9361973
-0.91573924 29.767887 7.980072
-0.77249116 29.92045 8.0198507
-0.59183246 30.122675 8.0729294
-0.36642414 30.339899 8.1301718
-0.11892357 30.613373 8.2029085
0.14869584 30.901239 8.2800779
0.35644308 31.128191 8.341342
0.52311575 31.27914 8.3823938
