# .PCD v0.7 - Point Cloud Data file format
VERSION 0.7
FIELDS x y z
SIZE 4 4 4
TYPE F F F
COUNT 1 1 1
WIDTH 655
HEIGHT 1
VIEWPOINT 0 0 0 2.98023e-07 1 0 -0
POINTS 655
DATA ascii
-15.110922 8.2812738 -0.30077833
-14.884805 8.4375153 -0.29865724
-14.653516 8.6404743 -0.29694158
-14.338574 8.8904543 -0.29449397
-14.11449 9.0704346 -0.29285854
-13.768392 9.3281908 -0.2903021
-13.517451 9.5159645 -0.28854999
-13.254128 9.7191811 -0.28690359
-12.942679 9.9417925 -0.28487432
-12.685408 10.151032 -0.28360456
-12.357307 10.365218 -0.28153518
-12.07464 10.620533 -0.28069389
-11.776046 10.837103 -0.27935737
-11.570486 11.016264 -0.2788634
-11.259734 11.232105 -0.27762425
-10.924135 11.47917 -0.27660087
-10.726784 11.634838 -0.27623802
-10.331092 11.924477 -0.27539936
-10.10344 12.102551 -0.27519271
-9.7766409 12.337817 -0.27478707
-9.5513649 12.545197 -0.27522254
-9.2479925 12.748954 -0.27493373
-8.9483833 12.952836 -0.27480128
-8.7222347 13.160977 -0.27560851
-8.4033613 13.403488 -0.27614227
-8.1570101 13.65698 -0.27767605
-7.8496857 13.897995 -0.27861884
-7.607512 14.106721 -0.2797617
-7.2589355 14.312106 -0.28012538
-6.9656763 14.432496 -0.2797251
-6.8182893 14.50274 -0.27972716
-14.928886 8.4722557 0.29962328
-14.683868 8.6498051 0.29748333
-14.350665 8.9018679 0.29477814
-14.119548 9.0769787 0.29299456
-13.774839 9.3352299 0.29046413
-13.527667 9.5237932 0.28877401
-13.247389 9.7380219 0.28700233
-12.922394 9.9767857 0.28496534
-12.715432 10.147802 0.283979
-12.364356 10.375897 0.28174981
-12.106522 10.606727 0.2809554
-11.780664 10.847516 0.27954108
-11.572178 11.01577 0.27887917
-11.249294 11.250406 0.27772009
-10.965263 11.473904 0.27702805
-10.750732 11.631292 0.27647513
-10.358375 11.916669 0.2756075
-10.097639 12.10194 0.27512041
-9.7943382 12.346298 0.27509812
-9.5680313 12.509676 0.27490535
-9.2471752 12.697133 0.27419227
-8.8856516 12.939853 0.27399564
-8.6559763 13.104148 0.27413967
-8.313324 13.347783 0.27449486
-8.0787601 13.523561 0.27496827
-7.742372 13.778305 0.27588817
-7.4784131 13.983849 0.27680126
-7.2313623 14.170715 0.27770746
-6.8819132 14.425321 0.27898407
-6.6669998 14.628261 0.28061217
-6.3280187 14.886128 0.28234839
-6.1135507 15.070724 0.2838842
-5.7842894 15.30498 0.28560424
-5.4997716 15.496485 0.28702226
-5.5237846 15.518559 0.28752539
-5.2397709 15.722907 0.28929785
-4.942615 15.941006 0.29132041
-4.697896 16.143913 0.29349235
-4.3389874 16.396856 0.29606599
-4.1209602 16.578655 0.29818982
-3.8026953 16.809395 0.30083257
-3.569252 17.013855 0.30344364
-3.2601011 17.224245 0.30600131
-2.946624 17.448309 0.30887553
-2.7106967 17.669651 0.31204242
-2.3539264 17.891117 0.31498781
-2.3036489 18.047155 0.31757361
-15.50869 8.1125736 0.91726094
-15.230224 8.1952801 0.90643573
-14.90801 8.4262409 0.89747077
-14.669466 8.6105461 0.89146709
-14.326116 8.8645172 0.88292617
-14.062093 9.0637293 0.87678891
-13.772381 9.2817621 0.87044454
-13.489742 9.4912577 0.86442149
-13.501749 9.5019236 0.86525834
-13.222452 9.701642 0.85951555
-12.927884 9.9292564 0.85430139
-12.66947 10.131756 0.85020101
-12.314484 10.321326 0.84211135
-12.0591 10.568889 0.84036702
-11.761859 10.754758 0.83530146
-11.418635 10.930425 0.82841271
-11.5058 11.011708 0.8346535
-11.231426 11.215908 0.83189952
-10.883938 11.392429 0.82574958
-10.666574 11.575465 0.82494688
-10.352043 11.83636 0.82412243
-10.117908 12.06177 0.82509136
-9.7831497 12.300455 0.82371265
-9.5198584 12.515404 0.82409078
-9.247159 12.717791 0.82413071
-8.9419937 12.941761 0.82440537
-8.6539145 13.165956 0.82573462
-8.3444815 13.395253 0.82710958
-8.1183796 13.576686 0.82903653
-7.7723413 13.832812 0.83158034
-7.5269208 14.020107 0.83395511
-7.2581401 14.222436 0.83686489
-6.9475408 14.450505 0.84030533
-6.7005668 14.650331 0.84432769
-6.3903213 14.889443 0.84916645
-6.1066456 15.106236 0.85393667
-5.7804675 15.34821 0.85955781
-5.5742407 15.517169 0.8641054
-5.2521672 15.751461 0.87022072
-4.9275475 15.982896 0.87653649
-4.7211361 16.154123 0.88205236
-4.3952994 16.395571 0.88960791
-4.1124783 16.622328 0.89742923
-3.8267207 16.829809 0.90456152
-3.5519426 17.050913 0.91278696
-3.240252 17.274981 0.92116797
-2.9322176 17.485716 0.92918324
-2.6978683 17.655977 0.93607742
-2.3592675 17.898088 0.94612938
-2.1050467 18.111528 0.95558566
-1.8237734 18.30587 0.9641484
-1.5519303 18.550165 0.97557312
-1.2523875 18.762119 0.98550069
-0.97491771 18.975939 0.99579948
-0.90512586 19.035816 0.99875259
-15.003499 8.2946243 1.4998778
-14.893075 8.394187 1.4957094
-14.6107 8.6105833 1.4837604
-14.284463 8.8514233 1.4702687
-14.072988 9.0190849 1.4623809
-13.75061 9.2604342 1.4504715
-13.468208 9.4730682 1.4405932
-13.223674 9.6632862 1.4329586
-12.880737 9.9229736 1.4225571
-12.654603 10.103225 1.4167475
-12.314862 10.347939 1.4073435
-12.046479 10.562538 1.4016988
-11.789334 10.751938 1.3960613
-11.479629 10.984125 1.3900347
-11.204988 11.174479 1.3845394
-10.893512 11.372355 1.3777936
-10.666221 11.608047 1.379239
-10.316998 11.851384 1.374772
-10.058923 12.059001 1.3738924
-9.7557354 12.285362 1.3725964
-9.4852419 12.488968 1.3720499
-9.5041094 12.504576 1.3741362
-9.2170038 12.696428 1.3727003
-8.8845749 12.937809 1.3731225
-8.6670275 13.108848 1.3749168
-8.3459482 13.347035 1.3772597
-8.0721588 13.570298 1.381425
-7.7801147 13.788898 1.3852372
-7.4903793 13.993802 1.388653
-7.5070658 14.006231 1.3903013
-7.1985555 14.232084 1.3954448
-6.9379959 14.424145 1.4003528
-6.6685328 14.630209 1.4067056
-6.3359523 14.87584 1.4146328
-6.1140704 15.06039 1.4220754
-5.7740688 15.311234 1.4317018
-5.4930348 15.496528 1.4384261
-5.5146961 15.510367 1.4402038
-5.2287793 15.719785 1.4494679
-4.9355216 15.93399 1.4593955
-4.658237 16.156195 1.4710999
-4.3327208 16.392277 1.4834207
-4.1148973 16.571686 1.4938781
-3.9744236 16.662096 1.4986428
-0.70265931 19.184298 1.0060949
-0.34049809 19.42803 1.0183495
-0.15342624 19.602171 1.027351
0.18276279 19.849234 1.0403221
0.44337568 20.05789 1.0514498
0.75424379 20.281319 1.0636598
1.0216091 20.477495 1.0745157
1.2239701 20.747335 1.0892278
1.5149612 20.960379 1.1013527
1.768012 21.154974 1.1125739
2.1955283 21.35969 1.1253288
2.4490888 21.547583 1.1365341
2.7555773 21.745012 1.1487401
3.0577698 21.944818 1.1611928
3.3158002 22.150217 1.1737942
3.6462941 22.397387 1.1892585
3.8860397 22.563269 1.1999029
4.2155256 22.80653 1.2154993
4.5063057 22.997156 1.2281505
4.4827499 23.013052 1.2287326
4.7705388 23.215565 1.2421134
5.1064858 23.450001 1.2577693
5.3288527 23.631725 1.2695876
5.7094679 24.121063 1.2990618
-15.219966 8.1565161 1.5107846
-14.992624 8.3271036 1.5004245
-13.07725 9.6956863 1.9988786
-12.839782 9.8918066 1.9902025
-12.614134 10.060153 1.9811126
-12.267974 10.328205 1.9691346
-12.023301 10.516192 1.9613211
-11.747162 10.717514 1.952602
-11.446002 10.947902 1.9447578
-11.202936 11.124009 1.938548
-10.856239 11.351286 1.9286361
-10.61776 11.57515 1.9286242
-10.27326 11.833914 1.9242576
-10.030849 12.02424 1.9226973
-9.748558 12.238936 1.9213398
-9.4233208 12.478734 1.9200242
-9.2139549 12.646886 1.9213796
-8.8509378 12.90218 1.9212013
-8.6202011 13.078891 1.9233576
-8.2721825 13.332794 1.9266322
-8.0669537 13.513817 1.9324384
-7.7601275 13.735114 1.937119
-7.4261169 13.981888 1.9438734
-7.2039671 14.152974 1.9500239
-6.8924356 14.392197 1.959365
-6.6089597 14.608781 1.9687772
-6.2822762 14.842484 1.9790373
-6.0522099 15.049828 1.9917288
-5.834024 15.179441 1.9967735
-4.0103626 16.676973 1.5006397
-3.7786582 16.818022 1.5081139
-3.4953818 16.998047 1.5182531
-3.5219831 17.019173 1.5205384
-3.2528303 17.216496 1.5329595
-2.9396117 17.438568 1.5472088
-2.6794541 17.646646 1.5616314
-2.3261781 17.853954 1.5752652
-2.0964959 18.091003 1.5933628
-1.8054832 18.284927 1.6075448
-1.4977849 18.494572 1.6233629
-1.5250312 18.515745 1.6254051
-1.2385758 18.722406 1.6416334
-0.94201475 18.943661 1.6594111
-0.69781637 19.145296 1.6761477
-0.33742943 19.404608 1.6979568
-0.12169653 19.577511 1.7128521
0.22653589 19.83429 1.7354221
0.43456024 20.0089 1.7509727
0.75986713 20.235119 1.7716296
1.0192473 20.415531 1.7883525
1.0669303 20.523333 1.7979851
1.918601 21.128654 1.8561275
2.2086811 21.343521 1.8773116
2.4496715 21.539434 1.8966066
2.7246883 21.721079 1.9152728
3.0549157 21.950953 1.9389693
3.2945087 22.154882 1.9596412
3.6384337 22.405275 1.9859002
3.7969644 22.522852 1.998299
-15.349129 7.9830537 2.1243098
-15.211787 8.1022539 2.1162498
-14.848533 8.3594398 2.0922854
-14.604414 8.5514822 2.0779982
-14.2591 8.8052826 2.0578043
-13.99598 8.9958582 2.0428514
-14.007919 9.0061808 2.0447755
-13.724732 9.2154169 2.0299339
-13.43502 9.4357224 2.0158091
-13.17816 9.6303701 2.0041199
-11.50927 10.800366 2.4998229
-11.373563 10.921557 2.4974763
-11.152234 11.07088 2.4889367
-10.81751 11.325682 2.4807019
-10.558167 11.558297 2.4794817
-10.247219 11.782788 2.4733953
-9.9774504 11.983376 2.4697347
-9.7239103 12.178527 2.4684289
-9.3807793 12.434661 2.4670668
-9.1576424 12.60653 2.467963
-8.7961397 12.874569 2.469697
-8.5577011 13.060165 2.4730692
-8.2549219 13.28345 2.4772377
-7.9862905 13.48891 2.4828105
-7.7170587 13.695686 2.4899566
-7.3894534 13.935362 2.4982862
-7.2756295 14.005189 2.4996665
-5.6635995 15.328402 2.0064809
-5.4269986 15.484982 2.0147018
-5.2215652 15.653261 2.0261717
-4.8951211 15.895111 2.0421593
-4.6168785 16.117949 2.0586619
-4.2992206 16.349386 2.075774
-4.0553432 16.551146 2.0923405
-3.7669659 16.751596 2.1082983
-3.469707 16.976723 2.127599
-3.2244141 17.164083 2.1444106
-2.876009 17.417831 2.1676154
-2.6511984 17.600355 2.185468
-2.3169 17.832445 2.2080147
-2.0538809 18.051493 2.2307405
-1.7417817 18.266851 2.2531338
-1.4655002 18.474627 2.2755525
-1.218281 18.667934 2.2970526
-0.89829141 18.90012 2.3232791
-0.65157932 19.10216 2.3468459
-0.31361985 19.348057 2.3760116
-0.056352865 19.552376 2.4007711
0.25896552 19.777596 2.4286587
0.5340718 19.975565 2.4535348
0.77422011 20.1651 2.4778199
1.012096 20.32597 2.4987998
3.8964424 22.613462 2.0075817
4.2201362 22.840588 2.0321364
4.447166 23.051474 2.0539331
4.7508469 23.249815 2.0761492
5.0689583 23.469973 2.100703
5.2277594 23.628214 2.1172009
5.692287 23.93029 2.1520455
5.8110857 24.117048 2.1703558
-15.361142 7.920783 2.7373769
-15.120715 8.0798702 2.7153819
-14.803679 8.3187523 2.6896164
-14.536735 8.5282364 2.6693659
-14.248784 8.7394505 2.647594
-13.922705 8.9782944 2.6238971
-13.671373 9.1825438 2.6085529
-13.391364 9.390027 2.5904911
-13.109951 9.610508 2.5746174
-12.794321 9.8452425 2.5570564
-12.553235 10.048675 2.5468082
-12.250684 10.260347 2.5310969
-11.966062 10.474303 2.5187535
-11.723506 10.663561 2.510154
-11.423435 10.899262 2.5007241
-7.3532944 13.97126 2.5006182
-7.1717491 14.113185 2.5074267
-6.8287816 14.367794 2.5196476
-6.5667758 14.566651 2.5307527
-6.2764897 14.786045 2.5442977
-5.9898353 14.992206 2.5570369
-6.0032845 15.002841 2.5593894
-5.7251272 15.201756 2.5729346
-5.4220729 15.424973 2.5896399
-5.2011495 15.601454 2.604785
-4.824842 15.883554 2.6292665
-4.6080589 16.054241 2.6454468
-4.2786765 16.299051 2.6690841
-3.9938745 16.495283 2.6880853
-4.0083146 16.506487 2.6903467
-3.7604587 16.691164 2.7100141
-3.4339638 16.933588 2.7366259
-3.1698422 17.131245 2.7594249
-2.8004434 17.404095 2.792043
-2.5745437 17.57131 2.8127508
-2.2734203 17.796486 2.8416865
-1.9908893 17.994698 2.8674664
-2.0041819 18.002396 2.8689165
-1.7177172 18.207603 2.896673
-1.3938971 18.444511 2.9296789
-1.1760569 18.617411 2.9546244
-0.85472131 18.862001 2.9905388
0.99224675 20.340874 2.5005164
1.0508713 20.403122 2.5085001
1.8965545 20.995613 2.5884333
1.9150187 21.082401 2.5992568
2.2359002 21.261347 2.6250112
2.5259638 21.476395 2.6551385
2.7878976 21.67837 2.6837273
3.117384 21.922634 2.7188544
3.3550601 22.103788 2.7451007
3.7109361 22.364122 2.7835426
3.9433682 22.555761 2.8115082
4.2442746 22.773026 2.8443706
4.524272 22.980171 2.8757792
4.7790999 23.175453 2.9054797
5.1551166 23.430878 2.9457731
5.2807722 23.5746 2.9663363
-15.297938 7.9076061 3.3474243
-15.079625 8.0770979 3.3251941
-14.786473 8.2981138 3.2959719
-14.495053 8.4961643 3.2658851
-14.508198 8.507247 3.2691827
-14.227976 8.7192917 3.2438278
-13.939373 8.9394369 3.2188778
-13.669239 9.1452742 3.196934
-13.344281 9.3960047 3.1724434
-13.118446 9.5649948 3.1558521
-12.772781 9.8332224 3.1334281
-12.522309 10.018275 3.1172178
-12.245336 10.237509 3.1026688
-11.943036 10.448084 3.0844815
-11.689615 10.655243 3.074693
-11.391538 10.891536 3.0635817
-11.114764 11.061247 3.0480847
-10.799697 11.303291 3.0389659
-10.573006 11.5174 3.0390577
-10.253308 11.753 3.0319145
-9.9304409 11.984937 3.025439
-9.7238216 12.163099 3.0270758
-9.3783083 12.419527 3.025116
-9.150054 12.599275 3.0268562
-8.8115044 12.844146 3.0278521
-8.5534363 13.050751 3.0331318
-8.2414618 13.266994 3.0360978
-7.9294829 13.484052 3.0406547
-8.006525 13.500624 3.0510359
-7.716258 13.678544 3.0528564
-7.3816171 13.924479 3.0634847
-7.1517673 14.100314 3.073314
-6.7923417 14.373305 3.0902936
-6.5739923 14.543071 3.1023052
-6.2639718 14.763692 3.1175935
-5.9789658 14.98478 3.1360407
-6.0011358 15.00391 3.1410978
-5.7188487 15.181867 3.1536112
-5.3838186 15.427791 3.1762462
-5.1498542 15.616577 3.1964171
-4.8166509 15.857608 3.2215824
-4.5629888 16.06344 3.2459686
-4.2448196 16.295813 3.2734618
-3.9775167 16.484232 3.2961662
-4.0107589 16.505371 3.3016827
-3.751811 16.659435 3.3194997
-3.3863525 16.928698 3.3558242
-3.1485953 17.123556 3.3843548
-2.8325095 17.347343 3.4167433
-2.559468 17.55743 3.4489052
-2.2957289 17.744289 3.4779885
-0.71255481 18.97113 3.0068555
-0.60704625 19.055614 3.0196614
-0.27448133 19.298622 3.0569866
0.0057941433 19.494894 3.0876853
-0.0065195756 19.503864 3.0891087
0.22742914 19.674889 3.1164751
0.57401031 19.928377 3.1576691
0.84708709 20.139765 3.1926703
1.1763372 20.380322 3.2333267
1.4286429 20.570959 3.2659757
1.7226975 20.788338 3.3038855
2.0098405 20.991175 3.3398831
1.9968456 21.001459 3.3413062
2.2925577 21.21299 3.3794243
2.5763624 21.428225 3.4183471
2.826036 21.615583 3.452729
3.0833168 21.809484 3.4886386
-15.282851 7.872695 3.9690437
-15.05469 8.0519581 3.9415672
-14.733977 8.2854033 3.9026949
-14.475785 8.4793491 3.8731284
-14.228304 8.6679792 3.8465629
-13.858193 8.940711 3.8075128
-13.674067 9.0936775 3.791364
-13.343051 9.3428335 3.7606828
-13.063289 9.5637903 3.7377765
-12.735079 9.8069668 3.7110984
-12.489739 9.9906778 3.6924987
-12.504453 10.005194 3.6972458
-12.202579 10.219901 3.6749265
-11.891367 10.441371 3.6535118
-11.66827 10.629874 3.6441755
-11.277773 10.896713 3.6206543
-11.103807 11.018362 3.6114662
-10.780449 11.275219 3.6017103
-10.496574 11.495087 3.5938039
-10.516481 11.511428 3.599689
-10.273378 11.696113 3.5942481
-9.9369421 11.937308 3.58587
-9.6822033 12.141323 3.5853734
-9.3328562 12.392129 3.5816588
-9.1152782 12.572374 3.5852165
-8.7785845 12.815491 3.586447
-8.4985418 12.995381 3.58482
-8.5187645 13.017074 3.5915744
-8.2216568 13.237398 3.5977786
-7.9171567 13.438983 3.601052
-7.6832938 13.64299 3.6150355
-7.3379016 13.896078 3.6280785
-7.119802 14.077258 3.6420631
-6.7713981 14.331749 3.659626
-6.5666866 14.512405 3.6775017
-6.2285333 14.742273 3.6950107
-5.9433932 14.945488 3.7132835
-5.6867771 15.15264 3.736685
-5.3554716 15.399905 3.7642939
-5.089406 15.611031 3.7908382
-4.811379 15.805007 3.8143563
-4.5696521 16.013733 3.844656
-4.2182698 16.264656 3.8794186
-3.953779 16.437397 3.9031274
-3.701674 16.650705 3.9381077
-3.3572266 16.902224 3.9784894
-3.2002573 17.016075 3.9973476
-2.0913916 17.906675 3.5043755
-1.9745435 17.982443 3.5164418
-2.0071206 18.007362 3.5219524
-1.7172853 18.180075 3.5496683
-1.375941 18.419394 3.5903754
-1.1631668 18.605972 3.6237454
-0.80413336 18.860191 3.6694641
-0.57619649 19.04649 3.7039695
-0.2591714 19.275291 3.7471848
0.064804122 19.488255 3.7881951
0.24253364 19.649143 3.8197739
0.61825836 19.923841 3.8746848
0.83183789 20.089182 3.9083283
1.1979446 20.356333 3.9637833
1.4012889 20.51355 3.9967237
3.2336812 21.920782 3.5094943
3.4304435 22.067369 3.5371132
3.7611959 22.309544 3.5833969
4.0127764 22.490683 3.6184247
3.9978616 22.500729 3.6195807
4.2817554 22.696819 3.6582711
4.6053028 22.933928 3.7048962
4.8322949 23.108582 3.739228
5.2568812 23.368551 3.7937548
-15.480369 7.8402414 4.0061536
-14.579858 8.3009062 4.4954791
-14.387581 8.4394941 4.4694772
-14.170876 8.6125641 4.4434466
-13.816099 8.8828201 4.4012074
-13.566669 9.0663681 4.372232
-13.27728 9.2865744 4.3417478
-12.996954 9.496541 4.3131075
-13.007599 9.5078869 4.3172007
-12.756641 9.6934624 4.2932076
-12.432064 9.9324636 4.2638016
-12.173368 10.135543 4.2445407
-11.831042 10.389539 4.2190671
-11.588795 10.580746 4.2048254
-11.283629 10.810276 4.1872959
-10.945732 10.971057 4.1525559
-11.02516 11.002185 4.1734948
-10.750391 11.212329 4.162447
-10.445168 11.445233 4.151907
-10.198139 11.647952 4.1485062
-9.8521433 11.901337 4.1399865
-9.6230392 12.081861 4.1387529
-9.2763386 12.33692 4.1360931
-9.0340328 12.524161 4.1377964
-8.7602167 12.725443 4.1398745
-8.4483671 12.952259 4.1436028
-8.2145739 13.147755 4.1542363
-7.8855109 13.385595 4.1628628
-7.6040688 13.603526 4.1759334
-7.2521687 13.874239 4.195013
-7.0765572 14.020393 4.2081671
-6.7501297 14.249928 4.2252102
-6.4313068 14.48447 4.2464991
-6.2202072 14.65382 4.2657852
-5.8779278 14.911538 4.2948093
-5.6384482 15.094389 4.3176069
-5.2838855 15.351503 4.3504491
-5.0743122 15.517193 4.3745003
-4.7657504 15.741134 4.4070659
-4.4279871 15.982328 4.44379
-4.221417 16.15374 4.4739175
-3.9941144 16.300598 4.4969387
-3.1033897 17.106958 4.0139537
-2.7718344 17.332729 4.0525427
-2.499326 17.495504 4.080162
-2.5681925 17.511475 4.0860991
-2.2638612 17.707449 4.1215239
-1.90121 17.954412 4.1683173
-1.705237 18.133257 4.2049527
-1.3347789 18.391846 4.257318
-1.1127092 18.581152 4.2975049
-0.78054774 18.818886 4.3485126
-0.49395132 18.989895 4.3856459
-0.54622149 19.025202 4.3941345
-0.25581062 19.210796 4.4356918
0.060353175 19.435114 4.4869623
1.4487165 20.567516 4.0078311
1.7543325 20.771278 4.0519791
2.0377984 20.982021 4.097683
1.9998921 21.000156 4.1004853
2.2752404 21.16518 4.1378536
2.6099885 21.403746 4.1913018
2.8564551 21.598974 4.2350049
3.2043402 21.85499 4.2936473
3.4436519 22.053034 4.338634
3.7648475 22.272541 4.39081
4.0736332 22.478424 4.4405422
4.2517195 22.636602 4.4770823
-15.245841 7.8009639 4.5889592
-14.988341 7.9910798 4.5512557
-15.002027 8.0039129 4.5561094
-14.740444 8.1854925 4.5179539
-4.0368967 16.308659 4.5017862
-3.873991 16.415932 4.5194926
-3.6086855 16.610012 4.554523
-3.2848127 16.849688 4.5999904
-3.0740552 17.014565 4.632864
-2.7249362 17.262424 4.682899
-2.4232602 17.480961 4.7288151
-2.1946621 17.660748 4.7687445
-1.8717513 17.888561 4.8194804
-1.6213347 18.079422 4.863833
-1.2935368 18.316545 4.9202399
-1.0296372 18.525085 4.9714513
-0.91124845 18.600693 4.9900265
0.11326966 19.496681 4.5012436
0.30516127 19.6397 4.5348153
0.67486256 19.894775 4.5957479
0.88351285 20.072092 4.6385169
1.2324951 20.313383 4.6984167
1.5139357 20.498302 4.7452974
1.4763372 20.515013 4.7485309
1.7697995 20.715261 4.7999926
2.0728738 20.92844 4.85536
2.2993295 21.116745 4.9040456
2.6556416 21.372677 4.97225
4.4400058 22.774305 4.5102286
4.606936 22.893354 4.5392437
4.8773422 23.098644 4.5889511
5.1815901 23.320559 4.6436367
-0.69422567 18.773014 5.0337396
-0.44571301 18.949081 5.0788112
-0.20175454 19.140278 5.1290374
0.15977836 19.399376 5.1982832
0.39953348 19.598907 5.252634
0.72150958 19.825865 5.3159356
1.0059772 19.996422 5.3648009
0.98083258 20.015247 5.3695016
1.2432084 20.207872 5.4250569
1.5554056 20.428965 5.4897799
2.799129 21.491549 5.003624
2.8907855 21.56192 5.0225258
3.2293539 21.803621 5.088747
3.5133247 21.987377 5.140583
3.4846509 22.025387 5.1482091
3.7527821 22.197588 5.1975007
4.1097116 22.432169 5.2650919
4.315486 22.629333 5.3186083
4.6850433 22.861032 5.3876348
4.8838048 23.061468 5.4422474
5.1118097 23.169201 5.477684
1.6088874 20.479053 5.5042629
1.829787 20.640306 5.5522909
2.1414707 20.869099 5.6212792
2.4047616 21.072359 5.683001
2.733047 21.309938 5.7568579
3.0076563 21.495129 5.8157125
2.9877136 21.505495 5.8177242
3.2654374 21.700933 5.8802886
3.6084013 21.944996 5.9591303
3.709712 22.026897 5.985218
5.2544684 23.310026 5.5165744
3.8559034 22.136171 6.0207062
4.1772161 22.366518 6.0967431
4.4386387 22.563606 6.1617808
4.7376184 22.776516 6.2336664
5.0168667 22.975021 6.301198
5.2247052 23.130802 6.3540487
