# .PCD v0.7 - Point Cloud Data file format
VERSION 0.7
FIELDS x y z
SIZE 4 4 4
TYPE F F F
COUNT 1 1 1
WIDTH 321
HEIGHT 1
VIEWPOINT 0 0 0 2.98023e-07 1 0 -0
POINTS 321
DATA ascii
8.4271765 -25.863764 -3.3399925
8.7043409 -25.652336 -3.3261487
8.9177761 -25.423092 -3.3080592
9.1758909 -25.238277 -3.2973828
9.519784 -25.008402 -3.2855976
9.4846621 -24.986284 -3.2815278
9.7703905 -24.780163 -3.2706563
10.060673 -24.560358 -3.2588418
10.285236 -24.350567 -3.2456958
10.606629 -24.106926 -3.233813
10.861644 -23.899752 -3.2233875
11.217385 -23.649729 -3.2139616
11.423979 -23.478577 -3.2059503
11.767633 -23.27177 -3.202002
12.134121 -23.085512 -3.2022705
12.299912 -22.852816 -3.1866286
12.702457 -22.645689 -3.1881237
13.004446 -22.5044 -3.1913681
12.982927 -22.487598 -3.1882684
13.253942 -22.281033 -3.1832871
13.504621 -22.081692 -3.1781387
13.488893 -21.922138 -3.1604443
13.75654 -21.762764 -3.1612966
14.105278 -21.549377 -3.1623702
14.321386 -21.362396 -3.1579204
14.653378 -21.102676 -3.1545286
14.894219 -20.895311 -3.1507008
15.221754 -20.662064 -3.151149
15.427703 -20.481913 -3.1484628
15.739505 -20.265589 -3.1506922
16.020428 -20.108128 -3.1567535
8.4418154 -26.009935 -2.3924291
8.4798231 -25.919939 -2.3859763
8.7566137 -25.720753 -2.3771555
9.0185146 -25.513941 -2.3675272
9.2694578 -25.331043 -2.3599324
9.6188354 -25.064545 -2.3488035
9.8438482 -24.895981 -2.3422215
10.180867 -24.646505 -2.3330522
10.443596 -24.444952 -2.3256648
10.754608 -24.216616 -2.3182642
11.021355 -24.013456 -2.3116136
11.304154 -23.793291 -2.3046761
11.596834 -23.580044 -2.2989907
11.842854 -23.393227 -2.2939928
12.15791 -23.156183 -2.2881923
12.434453 -22.934305 -2.2824337
12.733419 -22.744511 -2.2805598
13.079216 -22.522772 -2.2786469
13.313254 -22.347267 -2.2758319
13.590106 -22.09388 -2.2693825
13.827438 -21.884871 -2.2648542
14.170714 -21.631588 -2.2624688
14.432255 -21.433039 -2.2606418
14.727255 -21.217501 -2.2596953
15.009735 -21.008358 -2.2589095
14.995586 -20.996721 -2.2573597
15.277013 -20.800552 -2.2579484
15.615121 -20.56197 -2.2588921
15.833449 -20.392618 -2.2587841
16.12735 -20.177809 -2.2599273
8.4503765 -26.081934 -1.4368517
8.5124216 -26.010008 -1.4342712
8.4977655 -25.998947 -1.4334818
8.781683 -25.802343 -1.4284397
9.1085796 -25.556831 -1.4219069
9.3261919 -25.384823 -1.417318
9.6787281 -25.119699 -1.4108222
9.9317961 -24.932741 -1.406526
10.239805 -24.705355 -1.4015886
10.506731 -24.507542 -1.3974417
10.494177 -24.494619 -1.3965608
10.770578 -24.294024 -1.3927351
11.072028 -24.071718 -1.3886007
11.330234 -23.869253 -1.3847228
11.671778 -23.6141 -1.3804933
11.925491 -23.427313 -1.377695
12.220216 -23.199291 -1.3742063
12.500081 -23.003134 -1.3720394
12.48581 -22.989855 -1.3710701
12.772504 -22.781435 -1.3688003
13.066791 -22.566328 -1.3666102
13.327129 -22.364874 -1.3644271
13.667017 -22.106775 -1.3621082
13.883308 -21.935902 -1.3605216
14.227661 -21.682577 -1.3591568
14.484426 -21.487804 -1.3580852
14.75024 -21.286751 -1.3572789
15.061237 -21.061834 -1.3569938
15.319515 -20.853935 -1.3561369
15.659215 -20.60779 -1.3564495
15.88253 -20.436213 -1.3564427
16.150812 -20.235785 -1.3568916
25.727341 -13.074776 -0.50373858
25.847769 -12.957001 -0.50468826
8.4613333 -26.154016 -0.4798167
8.5604248 -26.060654 -0.47880375
8.8225622 -25.85174 -0.47680196
9.1548758 -25.603157 -0.47461963
9.3797531 -25.422129 -0.47298712
9.7260332 -25.165745 -0.4709416
9.9709911 -24.9774 -0.46943912
10.241553 -24.777424 -0.4679907
10.578715 -24.522091 -0.46616524
10.813334 -24.346983 -0.46501508
11.114749 -24.11562 -0.4635008
11.377287 -23.918112 -0.46232057
11.726366 -23.658356 -0.4609102
11.963095 -23.471191 -0.4598394
12.249784 -23.259432 -0.45886937
12.576975 -23.021786 -0.45790303
12.794489 -22.84494 -0.45704791
13.108409 -22.607635 -0.45615652
13.372299 -22.412359 -0.4555532
13.721614 -22.154905 -0.45488656
13.963485 -21.971891 -0.45441529
14.250828 -21.751074 -0.45390645
14.573464 -21.516027 -0.45360565
14.777246 -21.345005 -0.45316064
15.122885 -21.083155 -0.45289358
15.383087 -20.882666 -0.45273438
15.699732 -20.649515 -0.45279416
15.922051 -20.475803 -0.45274693
16.245487 -20.235893 -0.4529708
16.529335 -20.02232 -0.45319742
16.773361 -19.834063 -0.45341453
17.120068 -19.577488 -0.45395938
17.349106 -19.399313 -0.4542807
17.664957 -19.164692 -0.45495671
17.944082 -18.945505 -0.45548248
18.08197 -18.854637 -0.45599455
8.4688349 -26.199598 0.48061356
8.6257429 -26.085663 0.47957641
8.8834581 -25.882198 0.47764835
9.1983891 -25.648746 0.47562796
9.4438696 -25.444807 0.47374558
9.7563133 -25.220961 0.47203386
10.023429 -25.017656 0.47043014
10.272943 -24.833609 0.46910372
10.619358 -24.566368 0.46715796
10.845479 -24.397118 0.46603957
11.151649 -24.164557 0.4645482
11.441723 -23.939672 0.46314344
11.747751 -23.718374 0.46201748
12.014252 -23.512791 0.46089134
12.270521 -23.315945 0.45990837
12.61753 -23.063158 0.4588789
12.837914 -22.889738 0.45809734
13.172043 -22.633837 0.45711112
13.435681 -22.434366 0.4564496
13.729144 -22.219835 0.45592281
14.014659 -22.010393 0.45546365
14.270333 -21.815561 0.45503324
14.611506 -21.559845 0.45461249
14.82621 -21.384846 0.4542146
15.176549 -21.118376 0.45394129
15.426068 -20.927485 0.45380649
15.722445 -20.701483 0.45375481
16.005041 -20.503666 0.45402026
15.990762 -20.493399 0.4537257
16.274626 -20.284163 0.45394751
16.56889 -20.06872 0.45426258
16.830463 -19.869232 0.45452386
17.173264 -19.614347 0.45505708
17.388668 -19.442982 0.45530701
17.716099 -19.195349 0.45595655
17.981741 -18.985538 0.4564411
18.247061 -18.796581 0.4572739
18.568779 -18.567839 0.4583644
18.829435 -18.358295 0.4590354
19.156181 -18.10417 0.460078
19.379152 -17.933067 0.4608784
19.724445 -17.679249 0.46235609
19.975376 -17.480644 0.46332884
20.245283 -17.280205 0.46461517
20.555761 -17.054371 0.46621475
20.801615 -16.851622 0.46729684
21.122019 -16.622585 0.46916819
21.377495 -16.419144 0.47050744
21.72319 -16.162785 0.47262749
21.963577 -15.970757 0.47401482
22.249186 -15.759293 0.47592139
22.571751 -15.517424 0.47811407
22.782692 -15.349895 0.47951996
23.108927 -15.108668 0.48193204
23.393938 -14.893334 0.48407444
23.706028 -14.655343 0.48648557
23.922501 -14.478468 0.48809057
24.24633 -14.247055 0.49088383
24.540407 -14.028822 0.49340793
24.776779 -13.843809 0.49541676
25.121737 -13.580919 0.49847803
25.256073 -13.47888 0.49970004
25.388775 -13.38075 0.50094551
25.670366 -13.169024 0.50360513
25.943495 -12.94611 0.50609773
26.243267 -12.732618 0.50915343
26.521811 -12.519053 0.51192224
26.70417 -12.371539 0.51371807
8.7046032 -26.236967 1.4487443
9.1291809 -26.026161 1.4454575
9.2540207 -25.844006 1.4386564
9.5898132 -25.593107 1.4323494
9.7652416 -25.380428 1.4252098
10.200809 -25.125885 1.421192
10.345151 -24.93709 1.4149045
10.733629 -24.709681 1.4119066
11.020943 -24.572538 1.4113872
10.91683 -24.456097 1.4035916
11.288911 -24.279722 1.4032955
11.642936 -24.075239 1.4015398
11.47128 -23.979988 1.3931308
11.784812 -23.872061 1.3952419
12.183473 -23.627953 1.3932382
12.396739 -23.38303 1.3870281
12.703024 -23.216883 1.3869917
13.060301 -23.037073 1.3878449
12.959392 -22.979645 1.3826116
13.28271 -22.764086 1.381281
13.572816 -22.577084 1.3805707
13.79193 -22.292084 1.3738247
14.060201 -22.060312 1.3709921
14.324659 -21.853699 1.3694316
14.655972 -21.604408 1.368197
14.882355 -21.424496 1.3671274
15.22807 -21.167439 1.3666034
15.473386 -20.980011 1.3662125
15.742084 -20.777534 1.3661753
16.053444 -20.550705 1.3666762
16.300003 -20.350073 1.3664693
16.615091 -20.115673 1.367342
16.87598 -19.916431 1.3681024
17.222298 -19.654858 1.3695828
17.461161 -19.471134 1.370657
17.752134 -19.251854 1.3724424
18.072472 -19.017967 1.3749399
18.281265 -18.848303 1.3761271
18.606894 -18.606844 1.3790699
18.891251 -18.391642 1.3817568
19.216871 -18.149622 1.3853124
19.425098 -17.980259 1.3871969
19.751253 -17.741558 1.3914282
20.037495 -17.528906 1.395231
20.302504 -17.325121 1.3987799
20.622318 -17.081348 1.4033693
20.880524 -16.881691 1.4072237
21.198015 -16.646946 1.4125855
21.445398 -16.448435 1.4164282
21.756351 -16.220547 1.4222465
22.023642 -16.017632 1.4271897
22.270805 -15.830988 1.4320185
22.620281 -15.567307 1.4390923
22.842421 -15.394254 1.4436172
23.174013 -15.14501 1.4508715
23.441465 -14.940498 1.4568263
23.743992 -14.714338 1.4639678
24.012352 -14.51049 1.4703622
24.270695 -14.315983 1.4767773
24.612484 -14.05987 1.4855177
24.833694 -13.885731 1.4911256
25.090603 -13.697315 1.4981252
25.233379 -13.584595 1.5018898
25.433037 -13.432637 1.5073757
25.724388 -13.215341 1.5156791
26.006824 -13.004975 1.5238729
25.994287 -12.994216 1.5230321
26.27166 -12.794491 1.5314584
26.567896 -12.566831 1.5402737
26.754955 -12.428304 1.5460675
14.279014 -22.256823 4.1883049
14.619346 -22.066576 4.1924524
14.815207 -21.813681 4.1765223
15.178502 -21.633476 4.1857128
15.336677 -21.398722 4.1698442
15.719404 -21.192379 4.1792026
16.098013 -21.026762 4.1942635
15.93196 -20.9196 4.1648202
16.251499 -20.760647 4.1758933
16.594257 -20.591175 4.1885896
16.476206 -20.479992 4.1631141
16.789497 -20.314714 4.1742706
17.136341 -20.135958 4.18785
17.312737 -19.896259 4.1772957
17.608252 -19.733309 4.1888433
18.28294 -19.189417 4.1980195
18.599798 -19.059097 4.2179284
18.472496 -18.97554 4.1943669
18.763222 -18.801876 4.2071652
19.103746 -18.605639 4.2236395
19.308224 -18.398939 4.2242751
19.691254 -18.161242 4.2427921
19.857443 -17.950108 4.2396555
20.234018 -17.717924 4.2598314
20.569466 -17.560871 4.2836804
20.443249 -17.451422 4.2572174
20.797607 -17.305355 4.2852874
21.125065 -17.115568 4.3062534
21.279385 -16.913845 4.3053274
21.714432 -16.61742 4.3308077
21.881105 -16.40407 4.3314128
22.244221 -16.214682 4.3598795
22.519855 -16.074123 4.382185
22.40987 -15.989225 4.3602037
22.815582 -15.762525 4.3922238
23.151976 -15.590202 4.420825
23.335865 -15.369486 4.425683
23.70912 -15.127254 4.4544563
23.86261 -14.925803 4.4579186
24.202539 -14.706912 4.4856133
24.376986 -14.662254 4.5055575
24.58696 -14.511743 4.5218945
24.490835 -14.483804 4.5065336
24.751307 -14.294118 4.5270619
25.124992 -14.102486 4.5634246
25.359678 -13.831213 4.5751791
25.689716 -13.64677 4.6073632
25.88863 -13.445864 4.6204205
26.239027 -13.193209 4.6516643
26.570557 -13.020002 4.6864557
26.449013 -12.931787 4.6630273
26.597143 -12.924855 4.6836381
