# .PCD v0.7 - Point Cloud Data file format
VERSION 0.7
FIELDS x y z
SIZE 4 4 4
TYPE F F F
COUNT 1 1 1
WIDTH 632
HEIGHT 1
VIEWPOINT 0 0 0 2.98023e-07 1 0 -0
POINTS 632
DATA ascii
13.844746 5.3113513 -0.77717853
14.049083 5.0855813 -0.78303629
13.420753 5.8774705 -0.76785076
13.612586 5.6128039 -0.77168411
12.986248 6.4305925 -0.75945503
13.192432 6.2060409 -0.76411802
12.777348 6.7407346 -0.75716001
12.342862 7.3097024 -0.75183475
12.553071 7.0549436 -0.75466275
11.895909 7.8957572 -0.74828166
12.111403 7.6090713 -0.74961972
11.481597 8.4726076 -0.74781781
11.65793 8.2251062 -0.74776852
11.321604 8.7510433 -0.74997002
10.871643 9.3404064 -0.75118744
11.074034 9.1165628 -0.75173932
14.313817 4.7935448 -0.2634958
13.896191 5.3444343 -0.25988853
14.062594 5.1166129 -0.26121026
13.44205 5.9415479 -0.25653252
13.642065 5.6825585 -0.25796857
12.99462 6.4958782 -0.25358346
13.221337 6.2578402 -0.25534198
12.831233 6.7705321 -0.25325096
13.020545 6.5252309 -0.25421736
12.350392 7.3520966 -0.25089291
12.582095 7.1233339 -0.25237924
11.87581 7.8749008 -0.24873352
12.108199 7.6068606 -0.24960226
11.432046 8.4316635 -0.2479523
11.63301 8.1710987 -0.2481481
10.996654 8.9936104 -0.24796727
11.217841 8.7265358 -0.24809894
10.817796 9.2723064 -0.24871212
11.010061 9.0130596 -0.24836317
10.384075 9.8842421 -0.25024664
10.584753 9.6265087 -0.24974313
9.978363 10.423426 -0.251872
10.151133 10.201662 -0.25122172
9.7251682 10.761407 -0.25319922
9.3456812 11.279034 -0.25569227
9.5152559 11.067665 -0.25476858
8.9057274 11.862526 -0.25892609
9.1042852 11.604763 -0.257465
8.4784069 12.422774 -0.26252979
8.657074 12.190576 -0.26099807
8.2377872 12.747399 -0.26494059
7.8476019 13.279554 -0.26925695
8.0161915 13.072977 -0.26767349
7.4255614 13.923944 -0.27544671
7.6087866 13.666324 -0.27303264
7.212575 14.208973 -0.27815476
14.284352 4.7609167 0.2628358
14.513176 4.610477 0.26580405
13.856356 5.327302 0.25913134
14.058272 5.0580235 0.26078963
13.439335 5.8841515 0.25608724
13.605802 5.6569576 0.25720838
12.99291 6.4897122 0.2535091
13.195409 6.2164316 0.25462061
12.784861 6.775413 0.25258172
13.002616 6.5049186 0.25377893
12.36377 7.3252702 0.25085276
12.565827 7.0656447 0.25163659
11.94493 7.8921475 0.24990316
12.113305 7.6719141 0.25028637
11.492297 8.4896221 0.24939789
11.701182 8.2226696 0.2496471
11.285684 8.7777739 0.24958153
11.504348 8.5064373 0.24974126
10.867729 9.3292513 0.25001329
11.069367 9.070672 0.24980466
10.431249 9.8889971 0.25089759
10.611579 9.669795 0.25060275
9.9906387 10.488261 0.25283733
10.190869 10.237422 0.25215426
9.7866459 10.749998 0.25377297
10.005406 10.50734 0.25325629
9.3834543 11.316534 0.25661248
9.550478 11.10601 0.25568038
8.9414921 11.888762 0.25966406
9.1231432 11.660815 0.2584402
8.4809265 12.483539 0.26343045
8.7077932 12.206895 0.26174694
7.9870682 12.981067 0.26604015
8.220562 12.719775 0.26437548
8.5031767 12.502653 0.26392403
7.7791066 13.242795 0.26810044
8.0448484 13.164072 0.26929063
7.3477039 13.813887 0.27312192
7.5527415 13.554814 0.27085242
6.9275942 14.374854 0.27853432
7.1008735 14.150706 0.27636227
6.4910493 14.991298 0.28515044
6.6830468 14.728636 0.28232682
6.3033643 15.252195 0.2880784
6.5036206 15.00582 0.28546998
6.0918012 15.541441 0.29137251
14.26821 4.7454629 0.78808236
14.510109 4.5585403 0.79708552
13.852125 5.2850823 0.77704692
14.020117 5.0750875 0.78142595
13.4183 5.8778582 0.76774156
13.612864 5.6128988 0.77170295
12.981241 6.4728985 0.76020664
13.165613 6.2259855 0.76328111
12.781916 6.7457228 0.75749189
12.346867 7.3132687 0.75211006
12.55471 7.0563436 0.75477356
11.924695 7.8828211 0.74916065
12.102481 7.6531119 0.75046867
11.482627 8.4751291 0.74794084
11.669184 8.2300606 0.74839574
11.282302 8.74755 0.74824047
10.849598 9.3157387 0.7494902
11.057847 9.0577269 0.74912286
10.400021 9.8983374 0.75245839
10.602144 9.6580296 0.75163925
9.9822674 10.477067 0.75840402
10.181253 10.218366 0.75601023
9.7774363 10.740446 0.76124102
10.002308 10.503458 0.76012743
9.3476591 11.314415 0.76919669
9.5522242 11.055363 0.76570797
8.9206486 11.878287 0.77853
9.0978861 11.64032 0.77429187
8.4768362 12.470926 0.79026157
8.6610355 12.222225 0.7850979
8.2430515 12.781915 0.79713947
7.8503375 13.283744 0.8086912
8.0208197 13.073633 0.80383384
7.4184847 13.877228 0.82467806
7.5997386 13.649689 0.81877333
6.9742045 14.470827 0.84186971
7.1660523 14.226152 0.83483827
6.774116 14.738372 0.85012621
6.3489108 15.298788 0.86810362
6.5524445 15.0565 0.86056501
6.1318412 15.609299 0.87891084
14.843089 3.9959126 1.3448377
14.449581 4.4477067 1.3227172
14.679211 4.185595 1.3355275
14.230609 4.755857 1.3127804
13.866169 5.2438955 1.2970511
14.018337 5.0287466 1.3029724
13.407657 5.8626676 1.2802932
13.580694 5.6220312 1.285957
12.97899 6.4235096 1.2669762
13.162363 6.2083912 1.2732937
12.752784 6.7525082 1.2625625
12.338922 7.2931423 1.254056
12.54996 7.0541763 1.2595541
11.904387 7.8615079 1.2481529
12.105241 7.6065259 1.2508287
11.451168 8.4486475 1.2450242
11.659274 8.2053585 1.247409
11.249403 8.7495012 1.2469275
10.839173 9.292716 1.2491744
11.048953 9.0564194 1.2499003
10.398101 9.8959589 1.2558804
10.599723 9.6531572 1.2543267
9.9538527 10.451066 1.2627124
10.178108 10.216688 1.2617733
9.7587128 10.758024 1.2708321
10.010275 10.511605 1.2699412
9.3464527 11.296171 1.2827826
9.5495825 11.054268 1.2780367
8.8799982 11.904012 1.2993374
9.0969486 11.64164 1.2926282
8.453023 12.447721 1.3164145
8.6696749 12.191422 1.3088706
8.2530193 12.753202 1.3290954
8.5164146 12.50334 1.3235471
7.8398485 13.279422 1.3492148
8.0527811 13.052528 1.3418034
7.4156461 13.863067 1.3755122
7.6033731 13.677165 1.3690935
6.9615188 14.426349 1.4014164
7.1990619 14.23971 1.3960423
6.7760992 14.771089 1.4218502
7.0207949 14.541751 1.412758
6.345468 15.307541 1.4497861
6.5462437 15.111318 1.4407959
6.2198272 15.572737 1.4671065
15.945049 2.3944387 1.9797947
16.090837 2.2049618 1.9942008
15.491816 2.9902494 1.9372655
15.712169 2.7212925 1.9580318
15.306936 3.2622035 1.9217528
15.508802 3.0120378 1.9398211
14.871547 3.8320882 1.8856918
15.06019 3.6286924 1.9020876
14.442562 4.3924332 1.8535359
14.62766 4.1664281 1.8675182
13.991951 4.9878726 1.8238902
14.217123 4.7003665 1.8386872
13.783978 5.2745042 1.8122685
14.002909 5.005281 1.825879
13.384409 5.8270288 1.7924373
13.560043 5.582253 1.8005428
12.946986 6.3955398 1.7731137
13.131151 6.1696115 1.781436
12.491924 6.9914341 1.7576997
12.717144 6.7343059 1.7670341
12.292713 7.2922721 1.7550784
12.511605 7.0158472 1.761259
11.885668 7.8269858 1.7474413
12.069683 7.6083283 1.7518593
11.44664 8.3970118 1.7431087
11.650746 8.1522865 1.7460307
10.99462 8.9935007 1.7440796
11.219092 8.736105 1.7460423
10.814164 9.2770128 1.7495478
11.013426 9.018405 1.7477837
10.399634 9.8486385 1.7586972
10.60263 9.6062975 1.7567472
9.9357462 10.43451 1.7691377
10.145985 10.186713 1.7654316
9.4943562 10.990541 1.7832731
9.7251072 10.732017 1.7783831
9.298975 11.304857 1.7974015
9.5083275 11.065315 1.7913604
8.8760309 11.837116 1.8166827
9.0963736 11.597751 1.8098154
8.4482327 12.391734 1.841516
8.6393356 12.179629 1.8335772
7.9879251 12.984385 1.8718048
8.2171879 12.734318 1.8609396
7.7886624 13.293486 1.8918407
8.0173206 13.010509 1.8764389
7.4001517 13.824323 1.9253412
7.586122 13.645862 1.9170523
6.9209456 14.419792 1.9639207
7.1825089 14.193286 1.9532344
6.7698793 14.697139 1.9868875
7.0056229 14.556612 1.9835454
17.43574 0.47941017 2.1416504
17.535089 0.45831099 2.1537743
16.987701 0.98681098 2.0893495
17.192974 0.75119346 2.1131239
17.532555 0.52035409 2.1536751
16.78525 1.2768484 2.0670063
17.008512 1.0110018 2.0920701
16.369612 1.8303747 2.0224948
16.555599 1.6063792 2.0423255
16.195274 2.0876048 2.0049663
15.4801 2.9239049 2.4951642
15.508448 2.8973041 2.498795
15.250825 3.2512085 2.4698915
14.843573 3.792793 2.426646
15.023127 3.57549 2.4459054
14.392779 4.3928261 2.3834438
14.601944 4.112174 2.4027171
13.982658 4.9292479 2.3482265
14.152851 4.720778 2.3631265
13.751047 5.2514124 2.3315117
13.332692 5.8068671 2.3034034
13.517301 5.5730448 2.3157635
12.896644 6.3958187 2.2800641
13.117437 6.116374 2.2924104
12.479215 6.9711738 2.2640047
12.658091 6.7247119 2.2703357
12.276474 7.2409043 2.2575939
11.851852 7.7846746 2.246007
12.021726 7.5764694 2.2506583
11.392852 8.3929682 2.2412832
11.608597 8.1079397 2.242728
10.974314 8.9652119 2.2444201
11.157289 8.7231236 2.2432647
10.754876 9.2551689 2.2474661
10.345959 9.812274 2.258548
10.552439 9.5541143 2.2546234
9.8968 10.396046 2.2734253
10.120211 10.119855 2.2668421
9.4767418 10.968243 2.2958226
9.655057 10.722376 2.2854269
9.2819071 11.216746 2.3061054
8.8451529 11.794506 2.3351545
9.0227718 11.578037 2.3248696
8.3916473 12.392125 2.3704443
8.6121588 12.111936 2.3538964
7.9826698 12.904977 2.4033923
8.1394157 12.735687 2.3940077
7.7417297 13.251266 2.4308612
7.3478775 13.780603 2.473624
7.5194955 13.573917 2.4577417
7.1317987 14.060458 2.4970698
6.6635895 14.918722 2.0062222
6.3271999 15.266245 2.0291395
6.5079856 15.108963 2.0199318
6.1979656 15.557246 2.0561926
22.979059 -7.0880208 2.9526558
23.136112 -7.245018 2.9768047
22.884256 -6.9192147 2.9354515
18.173031 -0.65648091 2.8802218
17.818233 -0.20975536 2.8224006
18.022163 -0.47324771 2.8553922
17.398382 0.34759438 2.7562325
17.576832 0.11962987 2.7839823
16.948608 0.94671053 2.68859
17.132847 0.71585554 2.7160354
16.739117 1.2489407 2.6586919
16.340191 1.7844982 2.6034958
16.527918 1.5345259 2.6290312
15.891551 2.3912303 2.5453403
16.08707 2.1265194 2.5701268
15.651891 2.7154646 2.516149
15.024386 3.485229 2.9979908
14.847752 3.7815275 2.9783807
15.005521 3.5895808 2.9990764
14.393444 4.3932328 2.9252713
14.594892 4.1381202 2.9488673
13.951081 4.9422374 2.8769705
14.153222 4.7018771 2.8990681
13.732154 5.2568932 2.8583386
13.345018 5.7946768 2.8281593
13.512331 5.5734644 2.8412046
12.919583 6.3773017 2.8006389
13.10194 6.1531038 2.813709
12.48801 6.9309301 2.7762382
12.711924 6.6953063 2.7928765
12.269653 7.2632408 2.7717149
12.507777 7.0082426 2.786902
11.854264 7.7991338 2.7583733
12.056329 7.5588107 2.7660408
11.396477 8.3953218 2.7514973
11.597623 8.1403503 2.7543368
10.985672 8.9326725 2.7522483
11.179201 8.7173538 2.7557549
10.770874 9.2635174 2.761652
11.005719 9.0120935 2.7650132
10.362387 9.8148203 2.7744589
10.563662 9.6138783 2.7764628
9.9309607 10.405877 2.7960448
10.121845 10.203522 2.7938464
9.4893055 10.935003 2.8143029
9.7222786 10.677003 2.8070686
9.2518444 11.266235 2.8339157
9.5084133 11.005404 2.8270741
8.8561697 11.801223 2.8681533
9.0556593 11.559299 2.8543217
8.4087057 12.367789 2.9071145
8.6096115 12.164009 2.8968382
7.9488964 12.943738 2.9525881
8.1776981 12.740999 2.9429729
7.7512522 13.242013 2.9826939
6.8846903 14.386032 2.5260496
7.0827951 14.137421 2.504457
6.4787226 14.925438 2.5770657
6.6481314 14.715925 2.5576799
6.2440076 15.241481 2.6088314
6.097476 15.510339 2.6396084
25.49795 -10.504291 3.3860178
25.710976 -10.724578 3.4205558
25.31707 -10.217717 3.3521719
25.520115 -10.480985 3.3874371
24.893732 -9.668189 3.279016
25.064505 -9.8721085 3.3076611
24.475094 -9.0752659 3.205097
24.651289 -9.2905722 3.2346416
24.266958 -8.782486 3.1687672
23.848835 -8.2081051 3.0968673
24.041172 -8.4192257 3.1276579
23.389915 -7.6077938 3.0200293
23.621283 -7.8773804 3.0573623
23.302242 -7.4505749 3.0038662
21.430191 -5.0652695 3.487735
20.985455 -4.5023193 3.3994043
21.227655 -4.7921209 3.4467869
20.816874 -4.2466464 3.3650281
21.004585 -4.4931197 3.4020619
20.412062 -3.6958776 3.2855482
20.55792 -3.8864706 3.3137395
19.976778 -3.0903671 3.201649
20.125107 -3.2977321 3.2300565
17.994352 -0.50969988 3.499151
17.815928 -0.22058119 3.463407
18.000118 -0.41948128 3.4998186
17.414555 0.30675423 3.3856289
17.575191 0.11944486 3.4163654
16.948551 0.93480366 3.2994823
17.142784 0.69893646 3.3350778
16.749939 1.2386943 3.2648888
16.343813 1.7843797 3.195879
16.551785 1.5479065 3.2314003
15.907364 2.3614411 3.12603
16.093075 2.136375 3.1556818
15.476487 2.9200349 3.0614097
15.673122 2.6913834 3.0912442
15.269094 3.261677 3.0351129
14.738566 3.8725588 3.3307159
15.059704 3.5611222 3.0080569
14.39789 4.3474956 3.4723301
14.564099 4.121315 3.4944708
13.936267 4.9352498 3.4132557
14.1335 4.6718016 3.4367034
13.495266 5.4914088 3.3636925
13.735953 5.2123098 3.3920465
13.317892 5.7805448 3.3519928
13.511373 5.5159245 3.369277
12.898704 6.3558478 3.3199062
13.099187 6.1009789 3.3361733
12.458982 6.9524536 3.2939487
12.633537 6.7338791 3.3053088
12.278581 7.2318854 3.2901306
11.836394 7.7912521 3.2717085
12.045854 7.5520248 3.2823868
11.399066 8.3483791 3.2620866
11.601802 8.1018829 3.2670252
10.950546 8.9492273 3.265034
11.165014 8.7111979 3.2695825
10.754663 9.2806778 3.279803
11.005418 9.0110378 3.2838354
10.359941 9.8212843 3.2958763
10.572868 9.6124172 3.2989824
9.8974276 10.397103 3.3141448
10.132558 10.105958 3.3039875
9.4582376 10.903456 3.3324277
9.6765642 10.680014 3.3274333
8.9924622 11.483991 3.3674049
9.2382154 11.244669 3.3600245
8.8395224 11.787175 3.4016254
9.0462818 11.581985 3.3929086
8.4055767 12.360711 3.4511032
8.6129837 12.149291 3.4383097
7.9342742 12.909848 3.4983947
8.2191553 12.657538 3.4844031
7.6674857 13.432444 3.0064464
7.3689218 13.790117 3.0393558
7.5647917 13.617682 3.0280421
6.9182401 14.371513 3.1003876
7.1326904 14.160671 3.0821183
6.4248762 14.967922 3.1662159
6.6894336 14.724 3.1437182
6.3030462 15.239146 3.2056806
6.5111995 15.029024 3.1837294
6.1584973 15.503367 3.2426076
23.727957 -8.1903229 3.9757445
23.372118 -7.7065525 3.8978472
23.55526 -7.9421735 3.9371498
22.929808 -7.1077862 3.802212
23.107748 -7.3429313 3.8402662
22.49262 -6.5131779 3.7088366
22.681465 -6.7717643 3.7491145
22.315966 -6.2664447 3.6712496
22.501013 -6.498837 3.7094781
21.903099 -5.7037582 3.5848258
22.069778 -5.9299369 3.6194973
21.494162 -5.1562214 3.5009258
21.630665 -5.3307009 3.5284784
20.260283 -3.5164533 3.9970806
19.926062 -3.0858798 3.9194255
20.116508 -3.3028724 3.9626529
19.493519 -2.5092647 3.8204205
19.728361 -2.778404 3.8727336
19.328047 -2.2381978 3.7821519
19.509886 -2.4807222 3.8228769
18.887104 -1.690881 3.6860046
19.055698 -1.8901477 3.7222548
18.457878 -1.0797008 3.5939908
18.625984 -1.2828351 3.6291604
17.999229 -0.52791625 3.5002003
18.233421 -0.75994009 3.5473876
18.017218 -0.47663799 3.5034373
17.297752 0.41581836 3.9946504
16.903133 0.93341625 3.9083512
17.144068 0.67975914 3.9612412
16.484369 1.4909019 3.8212504
16.737963 1.2217435 3.8746998
16.326872 1.7729218 3.7916052
16.551577 1.5520568 3.8380127
15.87685 2.3612394 3.7058411
16.081034 2.1217785 3.7448094
15.453712 2.898802 3.6300502
15.660176 2.6807401 3.6681755
15.248312 3.2239318 3.5983117
14.816045 3.7949722 3.531127
15.063275 3.559761 3.5734348
14.227523 4.4408226 3.993665
14.629512 4.0756731 3.5061302
13.891013 4.8911028 3.9461508
14.104594 4.6045203 3.9756711
13.48168 5.4259787 3.8940225
13.62113 5.24406 3.9111547
13.250237 5.7497182 3.870501
12.845275 6.3117552 3.835181
13.020769 6.0789747 3.8504279
12.406404 6.888227 3.8023405
12.612248 6.6126876 3.8158514
11.978782 7.4727626 3.7830491
12.197577 7.1942649 3.7946837
11.769157 7.7437549 3.7752168
11.346305 8.2956934 3.7663956
11.521126 8.0769291 3.7701359
10.899035 8.8956919 3.7697163
11.097922 8.6412964 3.7689455
10.489229 9.4346437 3.780251
10.666857 9.2269726 3.7793384
10.254031 9.7775526 3.7966914
10.500621 9.5147047 3.7968755
9.8680954 10.261836 3.8149834
10.047085 10.044562 3.8067656
9.3926306 10.892406 3.8539503
9.5973072 10.638901 3.8393276
8.981163 11.440236 3.897177
9.1435022 11.239233 3.8824756
8.7746582 11.714846 3.9221747
8.3484287 12.278574 3.9786785
8.519762 12.074284 3.9596353
7.9352784 12.940118 3.5044682
8.0706377 12.77484 3.6270695
7.7390251 13.256592 3.5440483
7.3502207 13.775867 3.6048996
7.5610123 13.589469 3.5903416
6.8855333 14.377099 3.6803174
7.0939255 14.136931 3.6516578
6.4226198 14.97579 3.7619879
6.690093 14.702315 3.7293501
6.311049 15.182597 3.796032
25.890797 -11.110761 4.4623528
26.030121 -11.294825 4.4941573
25.483414 -10.574419 4.3698673
25.653006 -10.787123 4.4076557
25.243317 -10.241284 4.3146791
24.830687 -9.6909142 4.2217236
25.017269 -9.9272442 4.2629118
24.418018 -9.1256847 4.1286993
24.613039 -9.3862591 4.1721787
23.97407 -8.5284376 4.0302219
24.175501 -8.7915678 4.0743742
23.894491 -8.4135056 4.0122714
22.185471 -6.1059055 4.4727693
21.866201 -5.6863732 4.3917656
22.058588 -5.8845053 4.4377184
21.43009 -5.1073871 4.2822647
21.616899 -5.3056684 4.326654
20.984114 -4.5120168 4.1721249
21.20615 -4.7678862 4.2250085
20.77243 -4.2119107 4.1199756
21.066235 -4.488843 4.1867909
20.387142 -3.6740248 4.0267282
20.554382 -3.8974676 4.0665755
20.293766 -3.4919288 4.0026798
19.233355 -2.1612046 4.4683719
18.887846 -1.7387168 4.3791289
19.055765 -1.9461432 4.4222636
18.424051 -1.100118 4.2611284
18.610781 -1.2865772 4.3069792
17.986771 -0.51317853 4.1542606
18.219561 -0.76000363 4.2100763
17.783442 -0.21934696 4.1060562
18.019299 -0.48267978 4.1615758
17.418055 0.26991585 4.021852
17.578697 0.078428909 4.0583973
16.759972 0.99181145 4.4986777
16.443489 1.4443965 4.4230042
16.629398 1.2071033 4.4676843
16.241455 1.7346057 4.3768268
15.846302 2.2644839 4.2892742
16.011168 2.0661693 4.3257618
15.404526 2.8637695 4.1984272
15.601963 2.6032815 4.2383847
14.979242 3.4218774 4.1170855
15.153244 3.2044945 4.1502743
14.777826 3.717644 4.0832963
14.372645 4.251317 4.0162163
14.547572 4.0523715 4.0464401
8.2048512 12.481432 4.0022831
7.901341 12.860328 4.0444388
8.1044273 12.604076 4.015245
7.4514298 13.44664 4.1192718
7.6371837 13.222027 4.0915246
7.2143822 13.791655 4.1707664
6.8504181 14.253078 4.2374926
7.022325 14.051034 4.2089839
6.4020247 14.8584 4.3352127
6.5982347 14.61213 4.2960238
6.1591201 15.207653 4.3964753
26.094711 -11.382537 4.5090814
23.981232 -8.5851307 4.9511943
24.091482 -8.6989021 4.9788527
23.773399 -8.2499056 4.8914547
23.364695 -7.7044597 4.7822075
23.550745 -7.9378467 4.830843
22.929834 -7.1559701 4.6691365
23.098866 -7.3289738 4.7105699
22.481272 -6.5306396 4.5505595
22.663637 -6.7605419 4.5972271
22.354492 -6.322248 4.5157356
22.505365 -6.4905214 4.5528932
20.772072 -4.2502208 4.8950343
20.356575 -3.7155299 4.7773976
20.575359 -3.9115162 4.8352814
19.893356 -3.0963609 4.6480737
20.116688 -3.3499475 4.7082958
19.449951 -2.5223773 4.5279498
19.684355 -2.7626648 4.5891123
19.409258 -2.3818982 4.5146112
19.527969 -2.4868693 4.5447989
18.593349 -1.5025179 4.9983134
18.367752 -1.1551262 4.9314146
18.550026 -1.391158 4.9844561
17.925661 -0.56096494 4.8055282
18.14587 -0.84780669 4.8675427
17.495306 -0.0097234901 4.6878524
17.684839 -0.23052067 4.7391963
17.290974 0.29956174 4.6339421
17.508421 0.0075208661 4.6913776
16.893475 0.83549088 4.5322027
17.082628 0.59414876 4.5800934
16.790457 1.0105507 4.5071311
24.993462 -10.006102 5.233109
25.159332 -10.203197 5.2773495
24.83703 -9.7387381 5.1857271
25.006634 -9.9283314 5.2299018
24.396141 -9.1125193 5.0621448
24.590872 -9.3531551 5.1140718
24.268375 -8.9075823 5.0250297
20.152027 -3.5819142 5.4843678
19.876751 -3.205503 5.3948345
20.057501 -3.4425898 5.4529877
19.437649 -2.614167 5.2552204
19.602304 -2.8250585 5.3067303
18.987316 -2.0142655 5.1161833
19.207033 -2.3005254 5.1833782
18.794958 -1.7452513 5.0579038
19.003269 -1.9973241 5.1199579
18.615009 -1.4863589 5.0037565
20.840544 -4.5590062 5.7162704
20.489334 -4.0530901 5.596487
20.668667 -4.2875462 5.6561551
20.317513 -3.8116467 5.5390797
